      123984.             NaN             NaN
      12398.4             NaN             NaN
      2000.06       132.40240       137.97507
      1499.93       113.95950       120.60503
      1200.23       101.27566       108.95344
      999.871       91.765235       100.52511
      700.079       74.809064       86.816618
      499.935       59.569854       76.412603
      413.280       50.807854       70.888464
      354.240       43.696698       66.143082
      299.986       36.277927       60.462819
      250.018       28.891328       53.460629
      200.007       21.536317       43.926705
      174.995       18.256481       37.825701
      149.993       15.816595       30.454628
      135.000       15.370070       25.213011
      123.984       16.149105       21.139612
      118.080       17.132583       19.135183
      112.713       18.357293       17.592868
      103.320       20.925484       16.142491
      99.9871       21.722812       15.993011
      95.3723       22.586194       15.958757
      91.8400       23.181640       15.994474
      88.5600       23.685621       16.111011
      85.5062       24.140202       16.367172
      82.6560       24.433601       16.718226
      79.9897       24.589081       17.122128
      77.4900       24.606658       17.533730
      75.1418       24.529339       17.902353
      72.9318       24.394240       18.260580
      70.8480       24.205837       18.604242
      70.0079       24.099872       18.738383
      68.8800       23.965490       18.920021
      67.0184       23.680464       19.226481
      65.2547       23.373271       19.506199
      63.5815       23.016317       19.774408
      61.9920       22.631863       20.025180
      59.0400       21.781327       20.419747
      56.3564       20.861363       20.741629
      53.9061       19.873018       20.934969
      51.6600       18.879460       21.029991
      49.9935       18.050342       21.043163
      45.0851       15.323959       20.326885
      41.3280       13.536529       19.155902
      37.5709       11.988002       17.827440
      33.5092       10.454159       16.195545
      29.9986       9.2981345       14.562349
      27.5520       8.6209684       13.340174
      24.9968       8.0292621       11.977052
      24.3106       7.9597491       11.587904
      23.8431       7.9071608       11.350242
      23.3932       7.8521630       11.137322
      22.9600       7.7969681       10.931334
      22.5425       7.7406160       10.733223
      22.1400       7.6870135       10.541856
      21.7516       7.6329884       10.356272
      21.3766       7.5836375       10.174824
      21.0142       7.5357106       9.9971492
      20.6640       7.4903640       9.8217127
      20.3253       7.4527725       9.6540103
      20.0007       7.4183584       9.4876694
      19.3725       7.3861915       9.1675250
      18.7855       7.3573772       8.9046675
      18.2329       7.3235029       8.6665447
      17.7120       7.2878616       8.4445733
      17.2200       7.2534181       8.2392350
      16.7546       7.2180129       8.0432272
      16.3137       7.1877400       7.8599661
      15.8954       7.1558129       7.6925476
      15.4980       7.1241910       7.5366661
      15.1200       7.0905736       7.3902146
      14.9993       7.0798332       7.3433260
      14.7600       7.0570696       7.2500066
      14.4167       7.0206290       7.1127342
      14.0891       6.9863218       6.9822482
      13.7760       6.9531861       6.8563773
      13.4765       6.9212351       6.7349655
      13.1898       6.8916926       6.6168879
      12.9150       6.8643620       6.5029938
      12.6514       6.8394457       6.3933516
      12.3984       6.8189107       6.2847876
      12.2756       6.8129444       6.2358472
      12.1553       6.8049316       6.1911862
      11.9215       6.7874442       6.1027083
      11.6966       6.7674444       6.0191319
      11.4800       6.7468858       5.9384703
      11.2713       6.7247787       5.8606620
      11.0700       6.7031957       5.7865316
      10.8758       6.6821984       5.7141699
      10.6883       6.6606687       5.6445099
      10.5071       6.6397489       5.5763739
      10.3320       6.6184052       5.5109010
      10.1626       6.5986390       5.4478488
      9.99871       6.5785533       5.3874281
      9.84000       6.5580617       5.3294158
      9.68625       6.5372604       5.2738979
      9.66360       6.5340057       5.2652702
      9.53723       6.5160515       5.2186721
      9.39273       6.4945871       5.1649216
      9.25254       6.4738654       5.1125820
      9.11647       6.4528024       5.0615909
      8.98435       6.4324443       5.0109005
      8.85600       6.4119517       4.9615494
      8.73127       6.3920745       4.9124802
      8.61000       6.3730620       4.8646885
      8.49205       6.3538254       4.8182083
      8.37730       6.3353128       4.7719975
      8.26560       6.3175722       4.7270428
      7.99897       6.2760119       4.6177054
      7.74900       6.2431619       4.5151160
      7.51418       6.2098783       4.4264230
      7.29318       6.1746531       4.3427661
      7.08480       6.1384822       4.2628576
      6.91104       6.1084844       4.1962471
      6.70184       6.0698016       4.1136427
      6.52547       6.0383724       4.0432653
      6.35815       6.0152553       3.9738623
      6.33218       6.0195135       3.9620810
      6.32894       6.0207566       3.9610308
      6.32572       6.0229690       3.9600575
      6.32249       6.0261518       3.9591604
      6.31927       6.0302348       3.9592128
      6.31605       6.0352324       3.9612883
      6.31283       6.0410482       3.9653792
      6.30962       6.0467265       3.9724843
      6.30641       6.0498607       3.9872010
      6.30320       6.0441377       4.0053334
      6.30000       6.0248321       4.0196762
      6.29680       6.0025593       4.0181463
      6.29360       5.9867155       4.0082195
      6.29041       5.9787119       3.9968585
      6.28722       5.9755244       3.9876399
      6.28404       5.9743000       3.9795560
      6.28085       5.9738923       3.9734921
      6.27767       5.9733996       3.9684962
      6.27449       5.9738154       3.9643550
      6.27132       5.9742232       3.9603116
      6.26815       5.9746503       3.9572459
      6.26182       5.9743525       3.9520982
      6.23035       5.9724644       3.9337571
      6.19920       5.9683058       3.9193471
      6.04800       5.9420294       3.8577500
      5.90400       5.9131647       3.7993978
      5.63564       5.8551374       3.6897113
      5.51040       5.8279127       3.6374387
      5.16600       5.7493735       3.4897095
      4.99935       5.7128710       3.4161076
      4.76862       5.6665687       3.3181736
      4.42800       5.5850405       3.1749751
      4.13280       5.5101739       3.0462461
      3.87450       5.4452328       2.9308539
      3.64659       5.3824040       2.8332639
      3.40148       5.3091142       2.7221237
      3.26274       5.2659460       2.6575382
      3.09960       5.2164448       2.5793783
      2.75520       5.0998363       2.4146018
      2.47968       5.0048922       2.2710989
      2.42393       4.9867681       2.2443091
      2.25426       4.9242603       2.1600600
      2.19986       4.9029073       2.1319585
      2.12192       4.8716278       2.0909962
      2.06640       4.8499064       2.0611573
      1.90745       4.7850595       1.9773245
      1.77120       4.7240299       1.9046227
      1.65004       4.6670725       1.8356235
      1.54980       4.6216535       1.7772317
      1.45863       4.5764726       1.7287947
      1.37760       4.5309531       1.6831573
      1.30509       4.4889037       1.6391122
      1.24996       4.4566898       1.6024545
      1.12713       4.3827958       1.5262682
     0.999871       4.2929377       1.4380595
     0.899739       4.2204871       1.3589917
     0.799897       4.1522005       1.2711986
     0.700079       4.0903718       1.1799551
     0.656347       4.0674119       1.1407517
     0.550062       4.0209391       1.0642645
     0.486021       3.9916785       1.0426004
     0.439972       3.9631618       1.0436753
     0.433966       3.9588623       1.0455554
     0.399948       3.9284454       1.0631752
     0.381489       3.9080371       1.0798604
     0.364981       3.8867640       1.1010295
     0.344018       3.8576766       1.1469295
     0.326274       3.8135780       1.2163612
     0.309960       3.7274397       1.3078614
     0.291727       3.5459077       1.4100180
     0.285021       3.4463955       1.4478735
     0.273998       3.2054421       1.4705127
     0.258300       2.8438107       1.2404273
     0.250018       2.7303378       1.0418190
     0.240000       2.6947677      0.77053364
     0.238431       2.6996829      0.73003176
     0.233932       2.7328599      0.62525735
     0.229983       2.7675729      0.55103585
     0.225425       2.8105426      0.48018967
     0.221400       2.8475681      0.42209933
     0.219014       2.8723795      0.39105753
     0.217516       2.8886801      0.37303954
     0.213766       2.9312604      0.33623201
     0.210000       2.9685007      0.30677123
     0.200006       3.0561701      0.24461631
     0.189985       3.1346148      0.19661389
     0.180000       3.2060764      0.16260800
     0.170004       3.2710100      0.13700014
     0.165312       3.3009356      0.12720018
     0.160000       3.3338952      0.11845872
     0.154980       3.3641351      0.11143184
     0.149001       3.4022186      0.10179852
     0.145864       3.4246644     0.097794266
     0.144167       3.4376132     0.096638493
     0.142510       3.4504340     0.096076985
     0.140891       3.4632210     0.095995258
     0.138995       3.4785589     0.096605879
     0.136246       3.5015543     0.098515936
     0.133316       3.5279021      0.10279754
     0.130509       3.5546851      0.10968521
     0.127819       3.5815512      0.12046574
     0.124996       3.6099604      0.13568954
     0.121553       3.6447264      0.15963508
     0.118001       3.6812870      0.19225363
     0.114800       3.7181755      0.22924053
     0.110997       3.7669338      0.29492457
     0.107812       3.8073880      0.38336641
     0.105000       3.8164047      0.51215961
     0.102466       3.7406784      0.64215690
    0.0999952       3.6390854      0.70701874
    0.0976252       3.5330369      0.73996281
    0.0953723       3.4338782      0.74546423
    0.0932211       3.3428642      0.72347411
    0.0911647       3.2816854      0.68622200
    0.0885600       3.2184916      0.64461301
    0.0826560       3.0886168      0.53428914
    0.0774900       3.0327333      0.37911298
    0.0729318       3.0552577      0.28313265
    0.0688800       3.0741434      0.21471936
    0.0652547       3.1058194      0.16574746
    0.0619920       3.1273411      0.13904685
    0.0590400       3.1443093      0.11601921
    0.0563564       3.1604764     0.096447331
    0.0539061       3.1756455     0.081806071
    0.0516600       3.1885689     0.070508603
    0.0495936       3.1998445     0.060877048
    0.0476862       3.2096642     0.052904342
    0.0459200       3.2195349     0.044989569
    0.0442800       3.2283681     0.040210305
    0.0427531       3.2373842     0.033928993
    0.0413280       3.2464777     0.032287568
    0.0399948       3.2528240     0.030682314
    0.0387450       3.2587316     0.029100828
    0.0375709       3.2641162     0.028278331
    0.0364659       3.2690222     0.027474150
    0.0354240       3.2766532     0.027405085
    0.0344400       3.2774715     0.036554369
    0.0335092       3.2731672     0.033946066
    0.0326274       3.2736080     0.031511532
    0.0317908       3.2745089     0.029320262
    0.0309960       3.2756769     0.027308031
    0.0295200       3.2783778     0.023797122
    0.0281782       3.2811651     0.020834193
    0.0269530       3.2838126     0.018348611
    0.0258300       3.2863460     0.016220068
    0.0247968       3.2886697     0.014413959
    0.0236160       3.2913583     0.012501923
    0.0229600       3.2928292     0.011508685
    0.0221400       3.2946517     0.010338972
    0.0215624       3.2959305    0.0095592413
    0.0206640       3.2978964    0.0084243075
    0.0190745       3.3012301    0.0066246215
    0.0177120       3.3039861    0.0052927437
    0.0165312       3.3062531    0.0042849682
    0.0154980       3.3081573    0.0035072500
    0.0145863       3.3097557    0.0029014967
    0.0137760       3.3111116    0.0024231880
    0.0130510       3.3122757    0.0020389687
    0.0123984       3.3132783    0.0017275073
    0.0112713       3.3149013    0.0012645823
    0.0103320       3.3161567   0.00094483542
   0.00953723       3.3171426   0.00071727244
   0.00885600       3.3179307   0.00055205662
   0.00826560       3.3185736   0.00042894305
   0.00774900       3.3191040   0.00033588967
   0.00729318       3.3195477   0.00026422435
   0.00708480       3.3197459   0.00023450549
   0.00688800       3.3199277   0.00020826091
   0.00652547       3.3202511   0.00016408753
   0.00619920       3.3205337   0.00012881038
   0.00563564       3.3210071   7.6918553e-05
   0.00516600       3.3214120   4.1871966e-05
   0.00476862       3.3218213   1.7466882e-05
   0.00459200       3.3220941   8.0231372e-06
   0.00450851       3.3222971   3.8510782e-06
   0.00442800       3.3226657       0.0000000
   0.00439660       3.3229944   1.4663833e-06
   0.00438106       3.3233202   1.4430388e-05
   0.00437333       3.3236130   3.0621114e-05
   0.00436563       3.3242688   0.00011284293
   0.00436410       3.3244291   0.00024493399
   0.00436103       3.3247097   0.00078220194
   0.00435796       3.3247867    0.0013177167
   0.00435490       3.3246841    0.0018636686
   0.00435184       3.3244174    0.0023826698
   0.00435032       3.3242309    0.0026341771
   0.00434879       3.3239873    0.0028431894
   0.00434727       3.3236744    0.0030352435
   0.00434574       3.3233347    0.0032070573
   0.00434422       3.3229811    0.0032909714
   0.00434270       3.3226145    0.0032059820
   0.00434118       3.3222234    0.0030818440
   0.00433966       3.3219157    0.0028902641
   0.00433814       3.3217512    0.0026284869
   0.00433510       3.3215803    0.0018865280
   0.00432754       3.3218105    0.0013903584
   0.00432000       3.3219747    0.0011417456
   0.00430500       3.3221288    0.0010226912
   0.00429010       3.3221714   0.00092093214
   0.00427531       3.3222986   0.00077126251
   0.00426062       3.3226999   0.00071868825
   0.00425916       3.3227751   0.00076674574
   0.00425331       3.3229094    0.0012008875
   0.00425185       3.3228485    0.0013614965
   0.00425039       3.3227637    0.0014734512
   0.00424603       3.3225142    0.0014078982
   0.00424457       3.3224711    0.0013427207
   0.00423154       3.3223154    0.0014346762
   0.00421714       3.3221318    0.0013971723
   0.00420285       3.3220062    0.0013440371
   0.00418865       3.3218755    0.0012753037
   0.00417454       3.3218397    0.0010961884
   0.00416054       3.3218814    0.0010446793
   0.00414662       3.3218869   0.00099334063
   0.00413280       3.3219365   0.00092681709
   0.00411907       3.3220048   0.00093873778
   0.00410543       3.3220578   0.00096624081
   0.00409188       3.3220667    0.0010555110
   0.00407842       3.3220204    0.0010977144
   0.00406505       3.3219902    0.0011090217
   0.00405176       3.3219837    0.0011357331
   0.00403857       3.3219442    0.0012079775
   0.00402546       3.3218397    0.0012493105
   0.00401243       3.3217370    0.0012143769
   0.00399948       3.3216761    0.0011646166
   0.00393600       3.3215621   0.00093196294
   0.00387450       3.3215973   0.00075593051
   0.00375709       3.3216733   0.00066907143
   0.00364659       3.3217006   0.00061569361
   0.00344400       3.3217344   0.00050047438
   0.00326274       3.3217836   0.00040867333
   0.00309960       3.3218367   0.00033456806
   0.00275520       3.3219626   0.00020369348
   0.00247968       3.3220732   0.00012254004
   0.00225426       3.3221622   7.0153844e-05
   0.00206640       3.3222342   3.5174796e-05
   0.00190745       3.3222921   1.1124852e-05
   0.00177120       3.3223391   5.8062542e-06
   0.00165312       3.3223781   1.8019910e-05
   0.00154980       3.3224100   2.7017560e-05
   0.00145863       3.3224367   3.3727263e-05
   0.00137760       3.3224593   3.8837115e-05
   0.00130510       3.3224786   4.2770860e-05
   0.00123984       3.3224953   4.5844148e-05
   0.00112713       3.3225216   5.0206212e-05
   0.00103320       3.3225420   5.3032963e-05
  0.000953723       3.3225577   5.4932132e-05
  0.000885600       3.3225703   5.6240773e-05
  0.000826560       3.3225806   5.7167489e-05
  0.000774900       3.3225888   5.7840273e-05
  0.000729318       3.3225956   5.8336225e-05
  0.000688800       3.3226015   5.8709584e-05
  0.000652547       3.3226065   5.8994124e-05
  0.000619920       3.3226108   5.9214552e-05
  0.000495936       3.3226249   5.9794853e-05
  0.000413280       3.3226325   6.0008321e-05
  0.000309960       3.3226407   6.0149378e-05
  0.000247968       3.3226445   6.0190680e-05
  0.000206640       3.3226465   6.0207064e-05
  0.000154980       3.3226489   6.0219602e-05
  0.000123984       3.3226502   6.0224477e-05
  0.000103320       3.3226507   6.0226895e-05
  8.85600e-05       3.3226512   6.0228628e-05
  7.74900e-05       3.3226513   6.0229823e-05
  6.88800e-05       3.3226517   6.0230671e-05
  6.19920e-05       3.3226521   6.0231408e-05
