      123984.      1060.60      1063.60     -6368.60  2.25630e+06
      12398.4      331.010      340.490     -6361.80      225410.
      2000.06      121.450      144.440     -6113.90      35086.0
      1499.93      100.856      126.890     -5927.90      25594.0
      1200.23      86.2840      114.660     -5703.10      19787.0
      999.871      75.1370      105.330     -5448.20      15828.0
      700.079      55.3470      88.1920     -4714.60      9762.20
      499.935      39.2590      72.5280     -3719.10      5694.70
      413.280      31.5180      63.6850     -3062.40      4014.50
      354.240      26.0770      56.5230     -2514.80      2947.80
      299.986      21.1000      48.8230     -1938.50      2060.40
      250.018      16.7570      40.4330     -1354.00      1355.10
      200.007      13.1360      30.1160     -734.450      791.200
      174.995      12.1050      23.7130     -415.760      574.090
      149.993      12.9260      16.0190     -89.5300      414.130
      135.000      15.6980      11.4060      116.330      358.100
      123.984      18.9190      9.27700      271.850      351.020
      118.080      20.7530      8.80010      353.230      365.250
      112.713      22.3610      8.72980      423.810      390.420
      103.320      24.7700      9.58960      521.610      475.070
      99.9871      25.3730      10.0890      541.980      511.990
      95.3723      25.9410      10.8110      556.050      560.910
      91.8400      26.3080      11.3620      563.030      597.830
      88.5600      26.5940      11.9130      565.340      633.620
      85.5062      26.8310      12.5420      562.610      673.010
      82.6560      26.9190      13.2000      550.380      710.620
      79.9897      26.8850      13.8610      530.650      745.300
      77.4900      26.7320      14.4890      504.660      774.640
      75.1418      26.5050      15.0450      476.140      797.550
      72.9318      26.2340      15.5690      445.810      816.890
      70.8480      25.9220      16.0600      414.000      832.620
      70.0079      25.7680      16.2500      399.920      837.450
      68.8800      25.5700      16.5070      381.320      844.180
      67.0184      25.1820      16.9310      347.500      852.720
      65.2547      24.7810      17.3180      314.180      858.310
      63.5815      24.3370      17.6820      279.650      860.640
      61.9920      23.8720      18.0200      245.190      860.340
      59.0400      22.8810      18.5660      178.810      849.610
      56.3564      21.8390      19.0160      115.320      830.560
      53.9061      20.7470      19.3170      57.2980      801.560
      51.6600      19.6640      19.5060      6.21870      767.130
      49.9935      18.7710      19.5840     -31.1830      735.230
      45.0851      15.8910      19.0350     -109.810      604.970
      41.3280      14.0210      17.9980     -127.340      504.710
      37.5709      12.3990      16.8140     -128.980      416.960
      33.5092      10.7922      15.3430     -118.940      331.170
      29.9986      9.58020      13.8540     -100.160      265.450
      27.5520      8.86540      12.7380     -83.6550      225.850
      24.9968      8.23370      11.4910     -64.2490      189.230
      24.3106      8.15440      11.1360     -57.5210      181.620
      23.8431      8.09370      10.9220     -53.7930      176.810
      23.3932      8.03000      10.7320     -50.6920      172.350
      22.9600      7.96610      10.5480     -47.8090      168.060
      22.5425      7.90100      10.3710     -45.1300      163.880
      22.1400      7.83870      10.2000     -42.6010      159.910
      21.7516      7.77600      10.0340     -40.2060      156.040
      21.3766      7.71810      9.87150     -37.8770      152.380
      21.0142      7.66170      9.71210     -35.6230      148.820
      20.6640      7.60800      9.55430     -33.4040      145.380
      20.3253      7.56210      9.40380     -31.2460      142.220
      20.0007      7.51960      9.25390     -29.0900      139.170
      19.3725      7.47130      8.96610     -24.5710      133.980
      18.7855      7.42590      8.73350     -21.1300      129.710
      18.2329      7.37550      8.52350     -18.2530      125.730
      17.7120      7.32360      8.32770     -15.7160      121.980
      17.2200      7.27320      8.14680     -13.4700      118.510
      16.7546      7.22220      7.97360     -11.4180      115.170
      16.3137      7.17670      7.81170     -9.51800      112.120
      15.8954      7.12990      7.66430     -7.90580      109.290
      15.4980      7.08380      7.52720     -6.47940      106.640
      15.1200      7.03610      7.39840     -5.22970      104.110
      14.9993      7.02080      7.35710     -4.83630      103.310
      14.7600      6.98890      7.27480     -4.07680      101.690
      14.4167      6.93910      7.15320     -3.01800      99.2730
      14.0891      6.89180      7.03750     -2.03000      97.0020
      13.7760      6.84600      6.92560     -1.09610      94.8250
      13.4765      6.80170      6.81740    -0.212700      92.7400
      13.1898      6.76010      6.71180     0.650510      90.7440
      12.9150      6.72100      6.60970      1.48311      88.8480
      12.6514      6.68460      6.51120      2.28770      87.0500
      12.3984      6.65280      6.41310      3.13110      85.3300
      12.2756      6.64140      6.36910      3.54290      84.6000
      12.1553      6.62810      6.32930      3.87180      83.9030
      11.9215      6.60020      6.25020      4.49840      82.5050
      11.6966      6.57010      6.17560      5.02810      81.1490
      11.4800      6.53970      6.10350      5.51470      79.8300
      11.2713      6.50800      6.03390      5.94640      78.5380
      11.0700      6.47710      5.96760      6.34050      77.3070
      10.8758      6.44700      5.90270      6.72130      76.1100
      10.6883      6.41660      5.84020      7.06530      74.9480
      10.5071      6.38700      5.77890      7.39800      73.8200
      10.3320      6.35720      5.72000      7.69620      72.7260
      10.1626      6.32920      5.66320      7.98710      71.6880
      9.99871      6.30110      5.60880      8.24540      70.6830
      9.84000      6.27280      5.55660      8.47240      69.7110
      9.68625      6.24440      5.50670      8.66890      68.7710
      9.66360      6.24000      5.49890      8.69970      68.6270
      9.53723      6.21570      5.45690      8.85710      67.8380
      9.39273      6.18690      5.40840      9.02680      66.9230
      9.25254      6.15900      5.36110      9.19150      66.0380
      9.11647      6.13090      5.31500      9.33880      65.1710
      8.98435      6.10360      5.26900      9.49220      64.3200
      8.85600      6.07630      5.22420      9.62900      63.4870
      8.73127      6.04970      5.17950      9.77230      62.6690
      8.61000      6.02410      5.13590      9.91220      61.8780
      8.49205      5.99840      5.09350      10.0366      61.1050
      8.37730      5.97350      5.05120      10.1681      60.3470
      8.26560      5.94950      5.01000      10.2970      59.6140
      7.99897      5.89270      4.90940      10.6215      57.8600
      7.74900      5.84540      4.81440      10.9909      56.2840
      7.51418      5.79880      4.73290      11.2260      54.8910
      7.29318      5.75080      4.65610      11.3930      53.5520
      7.08480      5.70230      4.58270      11.5150      52.2650
      6.91104      5.66190      4.52140      11.6150      51.1990
      6.70184      5.61030      4.44520      11.7160      49.8780
      6.52547      5.56780      4.38000      11.8170      48.7740
      6.35815      5.53400      4.31480      12.0080      47.7570
      6.33218      5.53670      4.30300      12.1390      47.6490
      6.32894      5.53780      4.30190      12.1610      47.6460
      6.32572      5.53990      4.30080      12.1940      47.6520
      6.32249      5.54300      4.29970      12.2380      47.6660
      6.31927      5.54710      4.29950      12.2850      47.7000
      6.31605      5.55230      4.30130      12.3260      47.7640
      6.31283      5.55850      4.30510      12.3630      47.8600
      6.30962      5.56480      4.31200      12.3730      47.9900
      6.30641      5.56910      4.32690      12.2930      48.1940
      6.30320      5.56460      4.34600      12.0770      48.3670
      6.30000      5.54590      4.36230      11.7270      48.3860
      6.29680      5.52290      4.36260      11.4700      48.1890
      6.29360      5.50580      4.35380      11.3580      47.9420
      6.29041      5.49660      4.34290      11.3520      47.7420
      6.28722      5.49250      4.33380      11.3860      47.6070
      6.28404      5.49050      4.32570      11.4340      47.5010
      6.28085      5.48950      4.31960      11.4750      47.4250
      6.27767      5.48850      4.31460      11.5080      47.3610
      6.27449      5.48850      4.31040      11.5440      47.3160
      6.27132      5.48850      4.30630      11.5800      47.2710
      6.26815      5.48860      4.30320      11.6070      47.2380
      6.26182      5.48770      4.29810      11.6410      47.1730
      6.23035      5.48340      4.28020      11.7470      46.9410
      6.19920      5.47710      4.26650      11.7960      46.7360
      6.04800      5.44090      4.20900      11.8880      45.8010
      5.90400      5.40240      4.15480      11.9240      44.8920
      5.63564      5.32590      4.05300      11.9380      43.1710
      5.51040      5.28980      4.00430      11.9470      42.3650
      5.16600      5.18580      3.86630      11.9440      40.1000
      4.99935      5.13650      3.79700      11.9670      39.0070
      4.76862      5.07270      3.70450      12.0090      37.5840
      4.42800      4.96420      3.57030      11.8960      35.4470
      4.13280      4.86440      3.44920      11.7650      33.5560
      3.87450      4.77660      3.33990      11.6610      31.9070
      3.64659      4.69320      3.24830      11.4740      30.4900
      3.40148      4.59590      3.14370      11.2390      28.8960
      3.26274      4.53840      3.08280      11.0940      27.9820
      3.09960      4.47140      3.00850      10.9421      26.9040
      2.75520      4.31530      2.85310      10.4819      24.6240
      2.47968      4.18480      2.71580      10.1366      22.7300
      2.42393      4.15970      2.69020      10.0656      22.3810
      2.25426      4.07430      2.61040      9.78570      21.2710
      2.19986      4.04510      2.58380      9.68670      20.9040
      2.12192      4.00220      2.54500      9.54070      20.3720
      2.06640      3.97200      2.51650      9.44430      19.9910
      1.90745      3.88220      2.43700      9.13300      18.9220
      1.77120      3.79810      2.36880      8.81420      17.9930
      1.65004      3.71860      2.30370      8.52070      17.1330
      1.54980      3.65380      2.24790      8.29720      16.4270
      1.45863      3.59090      2.20320      8.04040      15.8230
      1.37760      3.52780      2.16170      7.77280      15.2520
      1.30509      3.46860      2.12120      7.53200      14.7150
      1.24996      3.42220      2.08680      7.35670      14.2830
      1.12713      3.31640      2.01700      6.93040      13.3790
     0.999871      3.18660      1.93730      6.40150      12.3470
     0.899739      3.07750      1.86370      5.99730      11.4710
     0.799897      2.96830      1.77820      5.64850      10.5570
     0.700079      2.86300      1.68580      5.35510      9.65270
     0.656347      2.82130      1.64460      5.25530      9.27970
     0.550062      2.73600      1.56410      5.03940      8.55900
     0.486021      2.69040      1.54690      4.84560      8.32370
     0.439972      2.65370      1.55870      4.61260      8.27300
     0.433966      2.64880      1.56270      4.57380      8.27860
     0.399948      2.61600      1.59660      4.29400      8.35350
     0.381489      2.59610      1.62560      4.09690      8.44030
     0.364981      2.57710      1.66060      3.88420      8.55900
     0.344018      2.55830      1.72950      3.55350      8.84900
     0.326274      2.53140      1.83250      3.04980      9.27730
     0.309960      2.46540      1.97740      2.16810      9.75060
     0.291727      2.30050      2.17340     0.568670      10.0000
     0.285021      2.20760      2.26040    -0.236200      9.98020
     0.273998      1.96374      2.40040     -1.90580      9.42770
     0.258300      1.48190      2.38050     -3.47060      7.05530
     0.250018      1.24683      2.28150     -3.65060      5.68930
     0.240000     0.996180      2.08450     -3.35290      4.15310
     0.238431     0.962629      2.04750     -3.26570      3.94200
     0.233932     0.885150      1.93060     -2.94350      3.41760
     0.229983     0.832240      1.83260     -2.66570      3.05030
     0.225425     0.783540      1.72260     -2.35330      2.69940
     0.221400     0.739930      1.62460     -2.09180      2.40420
     0.219014     0.718930      1.56260     -1.92490      2.24680
     0.217516     0.707820      1.52260     -1.81730      2.15550
     0.213766     0.692900      1.42260     -1.54370      1.97150
     0.210000     0.683980      1.33160     -1.30540      1.82160
     0.200006     0.680620      1.09860    -0.743700      1.49550
     0.189985     0.713420     0.864080    -0.237700      1.23290
     0.180000     0.804430     0.648260     0.226860      1.04300
     0.170004     0.939215     0.477290     0.654320     0.896560
     0.165312      1.01256     0.414820     0.853190     0.840060
     0.160000      1.09696     0.360160      1.07359     0.790160
     0.154980      1.17445     0.319320      1.27737     0.750060
     0.149001      1.26931     0.272980      1.53662     0.693000
     0.145864      1.32454     0.252970      1.69040     0.670130
     0.144167      1.35625     0.245060      1.77936     0.664730
     0.142510      1.38737     0.239060      1.86764     0.663320
     0.140891      1.41808     0.234550      1.95594     0.665230
     0.138995      1.45450     0.231150      2.06210     0.672410
     0.136246      1.50812     0.228840      2.22200     0.690240
     0.133316      1.56834     0.231340      2.40620     0.725630
     0.130509      1.62836     0.239540      2.59420     0.780100
     0.127819      1.68778     0.255730      2.78320     0.863240
     0.124996      1.74980     0.280030      2.98340     0.980000
     0.121553      1.82482     0.318930      3.22820      1.16400
     0.118001      1.90333     0.371930      3.48430      1.41580
     0.114800      1.98155     0.430230      3.74140      1.70510
     0.110997      2.08690     0.532430      4.07150      2.22220
     0.107812      2.18290     0.668740      4.31780      2.91950
     0.105000      2.24290     0.871540      4.27100      3.90950
     0.102466      2.18190      1.10100      3.54840      4.80480
    0.0999952      2.06490      1.24610      2.71120      5.14600
    0.0976252      1.93222      1.35310      1.90273      5.22880
    0.0953723      1.79763      1.42410      1.20352      5.11980
    0.0932211      1.65763      1.45910     0.618880      4.83720
    0.0911647      1.54563      1.45710     0.265950      4.50420
    0.0885600      1.42494      1.45610   -0.0897000      4.14960
    0.0826560      1.14285      1.44410    -0.779200      3.30070
    0.0774900     0.871750      1.31910    -0.980000      2.29980
    0.0729318     0.747750      1.15710    -0.779700      1.73040
    0.0688800     0.645350      1.02310    -0.630200      1.32050
    0.0652547     0.589350     0.873780    -0.416200      1.02990
    0.0619920     0.564840     0.770180    -0.274100     0.870060
    0.0590400     0.541140     0.674470    -0.162100     0.729970
    0.0563564     0.527440     0.578270   -0.0562000     0.610000
    0.0539061     0.531030     0.489560    0.0423200     0.519950
    0.0516600     0.544730     0.413060     0.126110     0.450000
    0.0495936     0.564430     0.345450     0.199240     0.389960
    0.0476862     0.588530     0.288840     0.262940     0.339980
    0.0459200     0.618130     0.234630     0.327040     0.290060
    0.0442800     0.651240     0.199620     0.384260     0.260000
    0.0427531     0.684640     0.160710     0.442900     0.220060
    0.0413280     0.723150     0.145210     0.501850     0.210020
    0.0399948     0.748950     0.133510     0.543100     0.199980
    0.0387450     0.772460     0.123010     0.581560     0.190040
    0.0375709     0.793860     0.116510     0.616640     0.184980
    0.0364659     0.812960     0.110710     0.648650     0.180000
    0.0354240     0.842570     0.106800     0.698510     0.179980
    0.0344400     0.850370     0.141110     0.703220     0.239980
    0.0335092     0.832470     0.133700     0.675130     0.222610
    0.0326274     0.832770     0.124100     0.678100     0.206700
    0.0317908     0.835070     0.115200     0.684070     0.192410
    0.0309960     0.838570     0.106900     0.691780     0.179290
    0.0295200     0.847380    0.0922930     0.709530     0.156410
    0.0281782     0.856880    0.0800020     0.727840     0.137100
    0.0269530     0.866080    0.0697920     0.745220     0.120890
    0.0258300     0.874980    0.0611410     0.761860     0.107000
    0.0247968     0.883180    0.0538910     0.777110    0.0951910
    0.0236160     0.892690    0.0463110     0.794740    0.0826820
    0.0229600     0.897890    0.0424210     0.804400    0.0761780
    0.0221400     0.904327    0.0378810     0.816370    0.0685130
    0.0215624     0.908838    0.0348800     0.824770    0.0634010
    0.0206640     0.915759    0.0305500     0.837680    0.0559540
    0.0190745     0.927441    0.0237900     0.859580    0.0441280
    0.0177120     0.937042    0.0188700     0.877690    0.0353640
    0.0165312     0.944893    0.0152000     0.892590    0.0287250
    0.0154980     0.951454    0.0124000     0.905111    0.0235960
    0.0145863     0.956935    0.0102400     0.915619    0.0195980
    0.0137760     0.961565   0.00854800     0.924535    0.0164390
    0.0130510     0.965526   0.00719800     0.932188    0.0139000
    0.0123984     0.968926   0.00611000     0.938781    0.0118400
    0.0112713     0.974407   0.00450400     0.949449   0.00877750
    0.0103320     0.978627   0.00340300     0.957700   0.00666060
   0.00953723     0.981928   0.00262400     0.964175   0.00515320
   0.00885600     0.984558   0.00206100     0.969350   0.00405840
   0.00826560     0.986698   0.00164300     0.973571   0.00324230
   0.00774900     0.988459   0.00132800     0.977049   0.00262530
   0.00729318     0.989929   0.00108600     0.979958   0.00215010
   0.00708480     0.990585  0.000985800     0.981257   0.00195300
   0.00688800     0.991186  0.000897400     0.982449   0.00177900
   0.00652547     0.992254  0.000748800     0.984567   0.00148600
   0.00619920     0.993186  0.000630300     0.986418   0.00125200
   0.00563564     0.994745  0.000456300     0.989518  0.000907810
   0.00516600     0.996077  0.000339000     0.992170  0.000675340
   0.00476862     0.997425  0.000257400     0.994857  0.000513470
   0.00459200     0.998326  0.000225800     0.996654  0.000450840
   0.00450851     0.998998  0.000211800     0.997996  0.000423180
   0.00442800      1.00022  0.000198800      1.00044  0.000397690
   0.00439660      1.00131  0.000193700      1.00262  0.000387910
   0.00438106      1.00239  0.000246200      1.00479  0.000493580
   0.00437333      1.00336  0.000299600      1.00674  0.000601220
   0.00436563      1.00553  0.000570800      1.01109   0.00114790
   0.00436410      1.00606   0.00100700      1.01216   0.00202620
   0.00436103      1.00699   0.00278000      1.01402   0.00559890
   0.00435796      1.00725   0.00454700      1.01453   0.00915990
   0.00435490      1.00692   0.00635100      1.01384    0.0127900
   0.00435184      1.00605   0.00807100      1.01208    0.0162400
   0.00435032      1.00544   0.00890700      1.01083    0.0179110
   0.00434879      1.00464   0.00960500      1.00922    0.0192990
   0.00434727      1.00361    0.0102500      1.00714    0.0205740
   0.00434574      1.00249    0.0108300      1.00487    0.0217140
   0.00434422      1.00132    0.0111200      1.00253    0.0222690
   0.00434270      1.00010    0.0108500      1.00008    0.0217020
   0.00434118     0.998796    0.0104500     0.997483    0.0208750
   0.00433966     0.997766   0.00982200     0.995440    0.0196000
   0.00433814     0.997211   0.00895500     0.994349    0.0178600
   0.00433510     0.996624   0.00648700     0.993216    0.0129300
   0.00432754     0.997382   0.00483000     0.994747   0.00963470
   0.00432000     0.997925   0.00400000     0.995837   0.00798340
   0.00430500     0.998436   0.00360200     0.996861   0.00719270
   0.00429010     0.998576   0.00326300     0.997142   0.00651670
   0.00427531     0.998997   0.00276400     0.997986   0.00552250
   0.00426062      1.00033   0.00258600      1.00066   0.00517370
   0.00425916      1.00058   0.00274500      1.00115   0.00549320
   0.00425331      1.00103   0.00418500      1.00204   0.00837860
   0.00425185      1.00083   0.00471900      1.00165   0.00944590
   0.00425039      1.00055   0.00509200      1.00107    0.0101900
   0.00424603     0.999720   0.00487800     0.999416   0.00975330
   0.00424457     0.999576   0.00466200     0.999130   0.00932000
   0.00423154     0.999059   0.00497000     0.998095   0.00993070
   0.00421714     0.998447   0.00484800     0.996872   0.00968090
   0.00420285     0.998028   0.00467300     0.996037   0.00932760
   0.00418865     0.997591   0.00444600     0.995167   0.00887060
   0.00417454     0.997469   0.00385000     0.994929   0.00768050
   0.00416054     0.997607   0.00367800     0.995205   0.00733840
   0.00414662     0.997624   0.00350700     0.995241   0.00699730
   0.00413280     0.997788   0.00328500     0.995569   0.00655550
   0.00411907     0.998015   0.00332400     0.996022   0.00663480
   0.00410543     0.998191   0.00341500     0.996373   0.00681760
   0.00409188     0.998221   0.00371200     0.996431   0.00741080
   0.00407842     0.998067   0.00385300     0.996122   0.00769110
   0.00406505     0.997966   0.00389100     0.995920   0.00776620
   0.00405176     0.997944   0.00398000     0.995876   0.00794360
   0.00403857     0.997813   0.00422100     0.995612   0.00842350
   0.00402546     0.997465   0.00436000     0.994917   0.00869790
   0.00401243     0.997122   0.00424500     0.994233   0.00846560
   0.00399948     0.996918   0.00408000     0.993828   0.00813480
   0.00393600     0.996533   0.00330600     0.993066   0.00658910
   0.00387450     0.996646   0.00271900     0.993295   0.00541980
   0.00375709     0.996894   0.00242900     0.993791   0.00484290
   0.00364659     0.996980   0.00225100     0.993963   0.00448840
   0.00344400     0.997084   0.00186700     0.994173   0.00372310
   0.00326274     0.997240   0.00156100     0.994485   0.00311340
   0.00309960     0.997410   0.00131400     0.994825   0.00262120
   0.00275520     0.997815  0.000877900     0.995634   0.00175200
   0.00247968     0.998172  0.000607600     0.996347   0.00121300
   0.00225426     0.998459  0.000433200     0.996920  0.000865060
   0.00206640     0.998691  0.000316800     0.997383  0.000632770
   0.00190745     0.998877  0.000236800     0.997755  0.000473070
   0.00177120     0.999028  0.000180500     0.998058  0.000360650
   0.00165312     0.999153  0.000139900     0.998306  0.000279560
   0.00154980     0.999255  0.000110000     0.998511  0.000219840
   0.00145863     0.999340  8.77100e-05     0.998681  0.000175300
   0.00137760     0.999412  7.07400e-05     0.998825  0.000141400
   0.00130510     0.999473  5.76800e-05     0.998947  0.000115300
   0.00123984     0.999526  4.74800e-05     0.999051  9.49150e-05
   0.00112713     0.999609  3.30100e-05     0.999218  6.59940e-05
   0.00103320     0.999673  2.36400e-05     0.999346  4.72650e-05
  0.000953723     0.999722  1.73500e-05     0.999445  3.46900e-05
  0.000885600     0.999761  1.30200e-05     0.999523  2.60340e-05
  0.000826560     0.999793  9.95700e-06     0.999586  1.99100e-05
  0.000774900     0.999818  7.73600e-06     0.999637  1.54690e-05
  0.000729318     0.999839  6.10100e-06     0.999679  1.22000e-05
  0.000688800     0.999857  4.87200e-06     0.999714  9.74260e-06
  0.000652547     0.999872  3.93700e-06     0.999744  7.87300e-06
  0.000619920     0.999885  3.21400e-06     0.999770  6.42730e-06
  0.000495936     0.999927  1.32200e-06     0.999854  2.64380e-06
  0.000413280     0.999949  6.37000e-07     0.999899  1.27390e-06
  0.000309960     0.999972  1.98800e-07     0.999943  3.97590e-07
  0.000247968     0.999982  7.99500e-08     0.999964  1.59900e-07
  0.000206640     0.999987  3.78000e-08     0.999975  7.55990e-08
  0.000154980     0.999993  1.15000e-08     0.999986  2.30000e-08
  0.000123984     0.999996  4.53700e-09     0.999991  9.07400e-09
  0.000103320     0.999997  2.65700e-09     0.999994  5.31400e-09
  8.85600e-05     0.999998  1.30500e-09     0.999995  2.61000e-09
  7.74900e-05     0.999998  6.61500e-10     0.999996  1.32300e-09
  6.88800e-05     0.999999  4.04900e-10     0.999997  8.09800e-10
  6.19920e-05      1.00000  1.44710e-17      1.00000  2.89410e-17
