      123984.             NaN             NaN
      12398.4             NaN             NaN
      2000.06       69.559693       15.758070
      1499.93       68.373390       17.900035
      1239.84       67.246230       19.913060
      1200.23       66.978064       20.347378
      999.871       65.359553       22.875515
      700.079       60.008888       29.034791
      499.935       51.346801       34.977128
      413.280       44.701554       37.350829
      354.240       38.695943       38.254751
      299.986       32.038878       37.985160
      250.018       25.122261       36.267484
      200.007       17.907543       32.655679
      174.995       14.405605       30.053379
      149.993       11.108952       26.917854
      135.000       9.2706119       24.791074
      123.984       8.0015513       23.116656
      118.080       7.3520933       22.181894
      112.713       6.7815397       21.310219
      103.320       5.8304876       19.735850
      99.9871       5.5078823       19.162602
      95.3723       5.0749157       18.356688
      91.8400       4.7540652       17.730165
      88.5600       4.4644934       17.141027
      85.5062       4.2022684       16.586178
      82.6560       3.9639491       16.062760
      79.9897       3.7467305       15.568294
      77.4900       3.5481353       15.100442
      75.1418       3.3660324       14.657123
      72.9318       3.1986168       14.236448
      70.8480       3.0442982       13.836731
      70.0079       2.9830645       13.674710
      68.8800       2.9017407       13.456418
      67.0184       2.7697402       13.094078
      65.2547       2.6472889       12.748462
      63.5815       2.5334183       12.418389
      61.9920       2.4273681       12.102802
      59.0400       2.2358991       11.511239
      56.3564       2.0681091       10.967001
      53.9061       1.9201707       10.464253
      51.6600       1.7890638       9.9981899
      49.9935       1.6945864       9.6488667
      45.0851       1.4306988       8.6005757
      41.3280       1.2437523       7.7748039
      37.5709       1.0708753       6.9232780
      33.5092      0.90152293       5.9639402
      29.9986      0.77251334       5.0884400
      27.5520      0.69478967       4.4406633
      24.9968      0.62894053       3.7133741
      24.3106      0.61509521       3.5055602
      23.8431      0.60693253       3.3600299
      23.3932      0.60023866       3.2165370
      22.9600      0.59505789       3.0747734
      22.5425      0.59146615       2.9343800
      22.1400      0.58957388       2.7950548
      21.7516      0.58952339       2.6564149
      21.3766      0.59152296       2.5180928
      21.0142      0.59584604       2.3796763
      20.6640      0.60285104       2.2408262
      20.3253      0.61303177       2.1011075
      20.0007      0.62689622       1.9614856
      19.3725      0.67054528       1.6726494
      18.7855      0.74488775       1.3779755
      18.2329      0.86778642       1.0853601
      17.7120       1.0502152      0.82505715
      17.2200       1.2637490      0.63229419
      16.7546       1.4709308      0.50214429
      16.3137       1.6558627      0.41323050
      15.8954       1.8176006      0.34948574
      15.4980       1.9592066      0.30160626
      15.1200       2.0840079      0.26427957
      14.9993       2.1219961      0.25369969
      14.7600       2.1948424      0.23432970
      14.4167       2.2940011      0.20973662
      14.0891       2.3832473      0.18919204
      13.7760       2.4649400      0.17171331
      13.4765       2.5384501      0.15677647
      13.1898       2.6064473      0.14379256
      12.9150       2.6680603      0.13249058
      12.6514       2.7255908      0.12251184
      12.3984       2.7787465      0.11368278
      12.2756       2.8042432      0.10963093
      12.1553       2.8295723      0.10578554
      11.9215       2.8783997     0.098736084
      11.6966       2.9331009     0.092663268
      11.6526       2.9478611     0.091877309
      11.6308       2.9586291     0.091699300
      11.6199       2.9643899     0.091762217
      11.6090       2.9715984     0.091963659
      11.5981       2.9796397     0.092429154
      11.5873       2.9898880     0.093345613
      11.5765       3.0040450     0.095083711
      11.5657       3.0235542     0.098623445
      11.5549       3.0546330      0.10669533
      11.5441       3.1093930      0.12990256
      11.5334       3.2276231      0.23501048
      11.5248       3.1671949      0.67685281
      11.5238       3.0697815      0.73342574
      11.5227       2.9533576      0.75457659
      11.5173       2.6196046      0.46042873
      11.5120       2.6659032      0.24890996
      11.5013       2.7764505      0.13847640
      11.4906       2.8301146      0.11189173
      11.4800       2.8598968      0.10164972
      11.4694       2.8790971     0.096555159
      11.4588       2.8925888     0.093565349
      11.4482       2.9024744     0.091626813
      11.4376       2.9109189     0.090226876
      11.4271       2.9179029     0.089164941
      11.4166       2.9234214     0.088330839
      11.3956       2.9337284     0.087015069
      11.3539       2.9484038     0.085167178
      11.2713       2.9701469     0.082513212
      11.0700       3.0118234     0.077366375
      10.8758       3.0462272     0.072970344
      10.6883       3.0779197     0.069003654
      10.5071       3.1071623     0.065397350
      10.3320       3.1346825     0.062091903
      10.1626       3.1600350     0.059062969
      9.99871       3.1846642     0.056264703
      9.84000       3.2073294     0.053693689
      9.68625       3.2288180     0.051308665
      9.66360       3.2319620     0.050971545
      9.53723       3.2492066     0.049105472
      9.39273       3.2685013     0.047061211
      9.25254       3.2875799     0.045156661
      9.11647       3.3050590     0.043390624
      8.98435       3.3216809     0.041745249
      8.85600       3.3375572     0.040211320
      8.73127       3.3527303     0.038779787
      8.61000       3.3671802     0.037441934
      8.49205       3.3803301     0.036193955
      8.37730       3.3941780     0.035018320
      8.26560       3.4067929     0.033920244
      7.99897       3.4360947     0.031457351
      7.74900       3.4624995     0.029368820
      7.51418       3.4864015     0.027601774
      7.29318       3.5080203     0.026071576
      7.08480       3.5277738     0.024741601
      6.91104       3.5437126     0.023715359
      6.70184       3.5616793     0.022572251
      6.52547       3.5768061     0.021679684
      6.35815       3.5907703     0.020903510
      6.19920       3.6036227     0.020204183
      5.90400       3.6259534     0.018984350
      5.63564       3.6457236     0.018004608
      5.51040       3.6546507     0.017592907
      5.16600       3.6773150     0.016571866
      4.99935       3.6880191     0.016140326
      4.76862       3.7021817     0.015565183
      4.42800       3.7212483     0.014840198
      4.13280       3.7369868     0.014344090
      3.87450       3.7498740     0.014001518
      3.64659       3.7604934     0.013779565
      3.40148       3.7711563     0.013638496
      3.26274       3.7768562     0.013613792
      3.09960       3.7832614     0.013630736
      2.75520       3.7968142     0.013912036
      2.47968       3.8062251     0.014427452
      2.42393       3.8084595     0.014595399
      2.25426       3.8138763     0.015158240
      2.19986       3.8159442     0.015398374
      2.12192       3.8185626     0.015762214
      2.06640       3.8199487     0.016057742
      1.90745       3.8255292     0.017094861
      1.77120       3.8303085     0.018277342
      1.65004       3.8345169     0.019630164
      1.54980       3.8381767     0.021040023
      1.45863       3.8415340     0.022619090
      1.37760       3.8452308     0.024335202
      1.30509       3.8486271     0.026219497
      1.24996       3.8512303     0.027901136
      1.12713       3.8580782     0.032686579
     0.999871       3.8670745     0.040157708
     0.899739       3.8762035     0.048734443
     0.799897       3.8881098     0.061965223
     0.700079       3.9031820     0.082794532
     0.656347       3.9113653     0.096522733
     0.550062       3.9332423      0.15168827
     0.486021       3.9433717      0.21391825
     0.439972       3.9240859      0.28666709
     0.433966       3.9185018      0.29688134
     0.399948       3.8648644      0.34619883
     0.381489       3.8344303      0.36067511
     0.364981       3.8083486      0.37101397
     0.344018       3.7818352      0.39226880
     0.326274       3.7388564      0.41753132
     0.309960       3.6830864      0.43304488
     0.291727       3.6076818      0.42349502
     0.285021       3.5795211      0.41289381
     0.273998       3.5341616      0.38436815
     0.258300       3.4952354      0.31755077
     0.250018       3.4852934      0.28557742
     0.240000       3.4814640      0.24514007
     0.238431       3.4814843      0.23879272
     0.233932       3.4830057      0.22031823
     0.229983       3.4871255      0.20444346
     0.225425       3.4949537      0.18738629
     0.221400       3.5028924      0.17681791
     0.219014       3.5069400      0.17118266
     0.217516       3.5091939      0.16782244
     0.213766       3.5136279      0.15778051
     0.210000       3.5209862      0.14650525
     0.200006       3.5485598      0.12480374
     0.189985       3.5801673      0.11460991
     0.180000       3.6054201      0.11740927
     0.170004       3.6219389      0.11492599
     0.165312       3.6324523      0.11007822
     0.160000       3.6513576      0.10181192
     0.154980       3.6782903     0.096478332
     0.149001       3.7188301      0.10293616
     0.145864       3.7413190      0.11087998
     0.144167       3.7539135      0.11658082
     0.142510       3.7665466      0.12295089
     0.140891       3.7786834      0.12990669
     0.138995       3.7935210      0.13911616
     0.136246       3.8154845      0.15262773
     0.133316       3.8448990      0.16977670
     0.130509       3.8778540      0.19206139
     0.127819       3.9179577      0.22086578
     0.124996       3.9655793      0.26752111
     0.121553       4.0283837      0.35905826
     0.118001       4.0734749      0.50317172
     0.114800       4.0919013      0.67770756
     0.110997       4.0506168       1.1211836
     0.107812       3.4444027       1.1944518
     0.105000       3.2099677      0.96761589
     0.102466       3.1658279      0.80459114
    0.0999952       3.1342653      0.73023856
    0.0976252       3.0595482      0.64278127
    0.0953723       3.0467062      0.52024240
    0.0932211       3.0740268      0.45069785
    0.0911647       3.0880430      0.40179394
    0.0885600       3.1177433      0.33980619
    0.0826560       3.1905934      0.29299579
    0.0774900       3.1922081      0.30067600
    0.0729318       3.1373373      0.26768577
    0.0688800       3.1407897      0.17348168
    0.0652547       3.1829372      0.13033088
    0.0619920       3.2204343      0.12106046
    0.0590400       3.2369319      0.13077760
    0.0563564       3.2308993      0.13471323
    0.0539061       3.2242535      0.12087538
    0.0516600       3.2258375      0.10856613
    0.0495936       3.2284670     0.097789216
    0.0476862       3.2316741     0.088331837
    0.0459200       3.2351436     0.080016443
    0.0442800       3.2387029     0.072691642
    0.0427531       3.2421922     0.066203244
    0.0413280       3.2456531     0.060460757
    0.0399948       3.2489631     0.055318868
    0.0387450       3.2521602     0.050761382
    0.0375709       3.2552039     0.046661642
    0.0364659       3.2580922     0.042991718
    0.0354240       3.2608490     0.039684562
    0.0344400       3.2634822     0.036722353
    0.0335092       3.2659213     0.034025631
    0.0326274       3.2683133     0.031576747
    0.0317908       3.2705201     0.029362435
    0.0309960       3.2726344     0.027327916
    0.0295200       3.2765074     0.023807707
    0.0281782       3.2799878     0.020841029
    0.0269530       3.2831285     0.018354925
    0.0258300       3.2859502     0.016223460
    0.0247968       3.2884863     0.014416768
    0.0236160       3.2913339     0.012500478
    0.0229600       3.2928866     0.011508191
    0.0221400       3.2947922     0.010338638
    0.0215624       3.2961017    0.0095597870
    0.0206640       3.2981103    0.0084225471
    0.0190745       3.3014911    0.0066251610
    0.0177120       3.3042606    0.0052921492
    0.0165312       3.3065265    0.0042832874
    0.0154980       3.3084178    0.0035074872
    0.0145863       3.3100028    0.0029010287
    0.0137760       3.3113451    0.0024230582
    0.0130510       3.3124924    0.0020389915
    0.0123984       3.3134810    0.0017275089
    0.0112713       3.3150756    0.0012647332
    0.0103320       3.3163111   0.00094473757
   0.00953723       3.3172735   0.00071729765
   0.00885600       3.3180470   0.00055198392
   0.00826560       3.3186783   0.00042910380
   0.00774900       3.3191966   0.00033570683
   0.00729318       3.3196324   0.00026431050
   0.00708480       3.3198232   0.00023448739
   0.00688800       3.3200002   0.00020826230
   0.00652547       3.3203177   0.00016407474
   0.00619920       3.3205941   0.00012881646
   0.00563564       3.3210587   7.6911030e-05
   0.00516600       3.3214549   4.1856022e-05
   0.00476862       3.3218583   1.7446199e-05
   0.00459200       3.3221278   8.0307167e-06
   0.00450851       3.3223299   3.8279456e-06
   0.00442800       3.3226958       0.0000000
   0.00439660       3.3230276   1.4600097e-06
   0.00438106       3.3233504   1.4407504e-05
   0.00437333       3.3236462   3.0630699e-05
   0.00436563       3.3242990   0.00011285907
   0.00436410       3.3244593   0.00024496205
   0.00436103       3.3247400   0.00078227844
   0.00435796       3.3248170    0.0013175385
   0.00435490       3.3247144    0.0018635397
   0.00435184       3.3244476    0.0023825885
   0.00435032       3.3242612    0.0026341188
   0.00434879       3.3240114    0.0028433999
   0.00434727       3.3237076    0.0030355525
   0.00434574       3.3233648    0.0032073538
   0.00434422       3.3230113    0.0032882627
   0.00434270       3.3226446    0.0032062795
   0.00434118       3.3222541    0.0030821365
   0.00433966       3.3219463    0.0028902385
   0.00433814       3.3217816    0.0026284350
   0.00433510       3.3216109    0.0018864097
   0.00432754       3.3218409    0.0013901924
   0.00432000       3.3220047    0.0011415552
   0.00430500       3.3221589    0.0010227904
   0.00429010       3.3222012   0.00092102113
   0.00427531       3.3223283   0.00077103724
   0.00426062       3.3227301   0.00071875957
   0.00425916       3.3228052   0.00076682142
   0.00425331       3.3229395    0.0012007014
   0.00425185       3.3228786    0.0013616260
   0.00425039       3.3227938    0.0014735911
   0.00424603       3.3225422    0.0014077221
   0.00424457       3.3225003    0.0013428450
   0.00423154       3.3223446    0.0014345079
   0.00421714       3.3221606    0.0013973002
   0.00420285       3.3220351    0.0013438601
   0.00418865       3.3219040    0.0012754199
   0.00417454       3.3218679    0.0010962880
   0.00416054       3.3219094    0.0010447735
   0.00414662       3.3219148   0.00099343050
   0.00413280       3.3219645   0.00092690125
   0.00411907       3.3220322   0.00093882113
   0.00410543       3.3220848   0.00096602496
   0.00409188       3.3220934    0.0010556020
   0.00407842       3.3220472    0.0010978088
   0.00406505       3.3220163    0.0011091149
   0.00405176       3.3220098    0.0011355279
   0.00403857       3.3219700    0.0012080774
   0.00402546       3.3218652    0.0012494125
   0.00401243       3.3217622    0.0012144750
   0.00399948       3.3217004    0.0011644075
   0.00393600       3.3215766   0.00091850521
   0.00387450       3.3216486   0.00075575872
   0.00375709       3.3216976   0.00068383261
   0.00364659       3.3217144   0.00061572223
   0.00344400       3.3217521   0.00050050484
   0.00326274       3.3218001   0.00040869715
   0.00309960       3.3218517   0.00033458633
   0.00275520       3.3219749   0.00020370357
   0.00247968       3.3220831   0.00012254571
   0.00225426       3.3221703   7.0157186e-05
   0.00206640       3.3222408   3.5176829e-05
   0.00190745       3.3222978   1.1126209e-05
   0.00177120       3.3223445   5.8052599e-06
   0.00165312       3.3223823   1.8019293e-05
   0.00154980       3.3224140   2.7017100e-05
   0.00145863       3.3224403   3.3726908e-05
   0.00137760       3.3224627   3.8836840e-05
   0.00130510       3.3224816   4.2770652e-05
   0.00123984       3.3224977   4.5844003e-05
   0.00112713       3.3225237   5.0206105e-05
   0.00103320       3.3225438   5.3032887e-05
  0.000953723       3.3225592   5.4932083e-05
  0.000885600       3.3225718   5.6240725e-05
  0.000826560       3.3225815   5.7167465e-05
  0.000774900       3.3225900   5.7840243e-05
  0.000729318       3.3225965   5.8336202e-05
  0.000688800       3.3226024   5.8709569e-05
  0.000652547       3.3226071   5.8994109e-05
  0.000619920       3.3226114   5.9214537e-05
  0.000495936       3.3226252   5.9794845e-05
  0.000413280       3.3226328   6.0008314e-05
  0.000309960       3.3226407   6.0149378e-05
  0.000247968       3.3226445   6.0190680e-05
  0.000206640       3.3226468   6.0207057e-05
  0.000154980       3.3226489   6.0219602e-05
  0.000123984       3.3226502   6.0224477e-05
  0.000103320       3.3226507   6.0226895e-05
  8.85600e-05       3.3226512   6.0228628e-05
  7.74900e-05       3.3226513   6.0229823e-05
  6.88800e-05       3.3226517   6.0230671e-05
  6.19920e-05       3.3226521   6.0231408e-05
