    0.0022959999      2.11500      1.11900      3.22110      4.73340
    0.0022542549      2.08800      1.12000      3.10530      4.67710
    0.0022139999      2.05400      1.11600      2.97350      4.58450
    0.0021751579      2.02400      1.10600      2.87330      4.47710
    0.0021376551      1.99710      1.09900      2.78060      4.38960
    0.0021014240      1.96660      1.09200      2.67510      4.29510
    0.0020664000      1.93620      1.08200      2.57810      4.18990
    0.0020325251      1.90760      1.07200      2.48980      4.08990
    0.0020000650      1.87350      1.06500      2.37580      3.99060
    0.0019372499      1.79900      1.02200      2.19190      3.67720
    0.0018785460      1.74140     0.966400      2.09850      3.36580
    0.0018232941      1.69750     0.895200      2.08010      3.03920
    0.0017712000      1.67350     0.825900      2.11850      2.76430
    0.0017219999      1.66360     0.753800      2.19940      2.50800
    0.0016754589      1.66900     0.690300      2.30900      2.30420
    0.0016313681      1.68380     0.629900      2.43840      2.12130
    0.0015895380      1.71090     0.579600      2.59120      1.98330
    0.0015498000      1.74360     0.536900      2.75190      1.87230
    0.0015120000      1.78490     0.503700      2.93220      1.79810
    0.0014999280      1.79940     0.494900      2.99290      1.78100
    0.0014760000      1.83110     0.479000      3.12350      1.75420
    0.0014416740      1.88920     0.465100      3.35280      1.75730
    0.0014089090      1.95470     0.474500      3.59570      1.85500
    0.0013776000      2.01400     0.511800      3.79430      2.06150
    0.0013476520      2.05200     0.569100      3.88680      2.33560
    0.0013189790      2.06700     0.628300      3.87770      2.59740
    0.0012915000      2.07200     0.687600      3.82040      2.84940
    0.0012651430      2.06000     0.750400      3.68050      3.09160
    0.0012398400      2.03400     0.803900      3.49090      3.27030
    0.0012275640      2.02000     0.827900      3.39500      3.34470
    0.0012155290      2.00500     0.852700      3.29290      3.41930
    0.0011921540      1.96220     0.901600      3.03730      3.53820
    0.0011696600      1.90850     0.935300      2.76760      3.57000
    0.0011480000      1.86020     0.958800      2.54100      3.56710
    0.0011271270      1.80980     0.984600      2.30590      3.56390
    0.0011070000      1.75130      1.00400      2.05900      3.51660
    0.0010875790      1.69350      1.01600      1.83569      3.44120
    0.0010688280      1.62890      1.03000      1.59242      3.35550
    0.0010507120      1.54990      1.03000      1.34129      3.19280
    0.0010332000      1.47410      1.00500      1.16295      2.96290
    0.0010162620      1.41670     0.969200      1.06769      2.74610
   0.00099987097      1.37010     0.939100     0.995265      2.57330
   0.00098400002      1.32220     0.913600     0.913548      2.41590
   0.00096862497      1.26730     0.885200     0.822470      2.24360
   0.00096636019      1.25860     0.880200     0.809320      2.21560
   0.00095372314      1.20820     0.845300     0.745220      2.04260
   0.00093927279      1.15310     0.790100     0.705380      1.82210
   0.00092525377      1.10960     0.722500     0.709210      1.60340
   0.00091164703      1.08215     0.648200     0.750890      1.40290
   0.00089843483      1.07189     0.574600     0.818780      1.23180
   0.00088559999      1.07546     0.508300     0.898250      1.09330
   0.00087312679      1.08700     0.452700     0.976632     0.984170
   0.00086100006      1.09990     0.407700      1.04356     0.896860
   0.00084920549      1.10910     0.368700      1.09416     0.817850
   0.00083772974      1.11450     0.328900      1.13394     0.733120
   0.00082656002      1.12170     0.284700      1.17716     0.638700
   0.00079989681      1.17290     0.176000      1.34472     0.412860
   0.00077490010      1.24940     0.108200      1.54929     0.270370
   0.00075141821      1.32070    0.0736400      1.73883     0.194510
   0.00072931771      1.37870    0.0612300      1.89706     0.168840
   0.00070847998      1.42070    0.0575500      2.01510     0.163520
   0.00069110370      1.44920    0.0566600      2.09700     0.164220
   0.00067018380      1.47700    0.0561100      2.17840     0.165750
   0.00065254741      1.49680    0.0554000      2.23730     0.165850
   0.00063581538      1.51330    0.0544700      2.28710     0.164860
   0.00061992002      1.52760    0.0533000      2.33070     0.162840
   0.00059039998      1.55100    0.0506100      2.40300     0.156990
   0.00056356359      1.57030    0.0484000      2.46350     0.152010
   0.00055103998      1.57850    0.0475100      2.48940     0.149990
   0.00051659999      1.59880    0.0455000      2.55410     0.145490
   0.00049993548      1.60750    0.0447700      2.58210     0.143940
   0.00047686162      1.61870    0.0439200      2.61830     0.142190
   0.00044280000      1.63270    0.0429600      2.66390     0.140280
   0.00041328001      1.64290    0.0422800      2.69730     0.138920
   0.00038745000      1.65070    0.0414400      2.72310     0.136810
   0.00036465881      1.65670    0.0406700      2.74300     0.134760
   0.00034014821      1.66240    0.0397700      2.76200     0.132230
   0.00032627370      1.66530    0.0391500      2.77170     0.130390
   0.00030996001      1.66840    0.0382700      2.78210     0.127700
   0.00027551999      1.67440    0.0367700      2.80230     0.123140
   0.00024796801      1.67800    0.0356000      2.81440     0.119470
   0.00024239299      1.67890    0.0353800      2.81750     0.118800
   0.00022542551      1.68070    0.0347000      2.82350     0.116640
   0.00021998580      1.68110    0.0344800      2.82490     0.115930
   0.00021219239      1.68200    0.0341600      2.82800     0.114910
   0.00020664001      1.68250    0.0339500      2.82970     0.114240
   0.00019074460      1.68350    0.0333300      2.83310     0.112220
   0.00017711999      1.68450    0.0328200      2.83650     0.110570
   0.00016500400      1.68510    0.0324600      2.83850     0.109400
   0.00015498000      1.68560    0.0321800      2.84020     0.108490
   0.00014586350      1.68560    0.0318900      2.84020     0.107510
   0.00013776000      1.68600    0.0316400      2.84160     0.106690
   0.00013050950      1.68590    0.0314000      2.84130     0.105870
   0.00012499650      1.68590    0.0312300      2.84130     0.105300
   0.00012398400      1.68610    0.0312000      2.84200     0.105210
   0.00011271271      1.68630    0.0310100      2.84260     0.104580
   9.9987102e-05      1.68630    0.0307700      2.84270     0.103770
   8.9973879e-05      1.68620    0.0306000      2.84230     0.103200
   7.9989678e-05      1.68630    0.0304000      2.84270     0.102530
   7.0007908e-05      1.68730    0.0301600      2.84610     0.101780
   6.5634727e-05      1.68780    0.0300600      2.84780     0.101470
   5.5006212e-05      1.69040    0.0298600      2.85660     0.100950
   4.8602119e-05      1.69400    0.0297300      2.86880     0.100730
   4.3997160e-05      1.69770    0.0296400      2.88130     0.100640
   4.3396571e-05      1.69830    0.0296200      2.88330     0.100610
   3.9994839e-05      1.70280    0.0295400      2.89870     0.100600
   3.8148919e-05      1.70580    0.0294600      2.90890     0.100510
   3.6498091e-05      1.70910    0.0293800      2.92020     0.100430
   3.4401771e-05      1.71440    0.0292800      2.93830     0.100400
   3.2627371e-05      1.72000    0.0291600      2.95750     0.100310
   3.0996001e-05      1.72610    0.0290600      2.97860     0.100320
   2.9172710e-05      1.73510    0.0288800      3.00970     0.100220
   2.8502071e-05      1.73920    0.0288100      3.02400     0.100210
   2.7399781e-05      1.74660    0.0286900      3.04980     0.100220
   2.5830001e-05      1.75980    0.0284400      3.09610     0.100100
   2.5001809e-05      1.76860    0.0282700      3.12710    0.0999970
   2.3999999e-05      1.78160    0.0274400      3.17330    0.0977740
   2.3843080e-05      1.78380    0.0273600      3.18120    0.0976100
   2.3393209e-05      1.79140    0.0272400      3.20840    0.0975950
   2.2998330e-05      1.79860    0.0273200      3.23420    0.0982750
   2.2542550e-05      1.80800    0.0276500      3.26810    0.0999820
   2.2139999e-05      1.81770    0.0285000      3.30320     0.103610
   2.1901430e-05      1.82380    0.0293100      3.32540     0.106910
   2.1751580e-05      1.82760    0.0299300      3.33920     0.109400
   2.1376550e-05      1.83830    0.0319300      3.37830     0.117390
   2.0999999e-05      1.84950    0.0346300      3.41950     0.128100
   2.0000650e-05      1.88460    0.0462200      3.54960     0.174210
   1.8998469e-05      1.92610    0.0667700      3.70540     0.257210
   1.8000001e-05      1.97750    0.0996200      3.90060     0.394000
   1.7000410e-05      2.03900     0.157100      4.13280     0.640650
   1.6531201e-05      2.06900     0.197600      4.24170     0.817670
   1.6000000e-05      2.10100     0.260100      4.34650      1.09290
   1.5498000e-05      2.12000     0.336800      4.38100      1.42800
   1.4900130e-05      2.10900     0.448900      4.24640      1.89350
   1.4586350e-05      2.08200     0.504400      4.08030      2.10030
   1.4416739e-05      2.06000     0.529700      3.96300      2.18240
   1.4251040e-05      2.03700     0.548300      3.84870      2.23380
   1.4089090e-05      2.01700     0.560900      3.75370      2.26270
   1.3899550e-05      1.99790     0.573400      3.66280      2.29120
   1.3624610e-05      1.97390     0.591200      3.54680      2.33390
   1.3331610e-05      1.95100     0.610500      3.43370      2.38220
   1.3050950e-05      1.93070     0.629300      3.33160      2.43000
   1.2781860e-05      1.91150     0.648200      3.23370      2.47810
   1.2499650e-05      1.89210     0.668800      3.13270      2.53090
   1.2155290e-05      1.86750     0.695600      3.00370      2.59810
   1.1800130e-05      1.84130     0.725600      2.86390      2.67210
   1.1480000e-05      1.81550     0.755200      2.72570      2.74210
   1.1099730e-05      1.78140     0.794600      2.54200      2.83100
   1.0781220e-05      1.74760     0.832600      2.36090      2.91010
   1.0500000e-05      1.71140     0.873500      2.16590      2.98980
   1.0246610e-05      1.65150     0.912200      1.89534      3.01300
   9.9995159e-06      1.59070     0.926300      1.67229      2.94690
   9.7625203e-06      1.53610     0.933200      1.48874      2.86700
   9.5372312e-06      1.48280     0.936100      1.32241      2.77610
   9.3221053e-06      1.42930     0.932600      1.17316      2.66590
   9.1164708e-06      1.37390     0.917500      1.04579      2.52110
   8.8560000e-06      1.32960     0.869400      1.01198      2.31190
   8.2656004e-06      1.30880     0.890500     0.919967      2.33100
   7.7490002e-06      1.15600     0.901800     0.523090      2.08500
   7.2931767e-06      1.03249     0.847500     0.347780      1.75010
   6.8879999e-06     0.938890     0.772200     0.285220      1.45000
   6.5254740e-06     0.873700     0.686800     0.291660      1.20010
   6.1992001e-06     0.835400     0.598500     0.339690     0.999970
   5.9039999e-06     0.825300     0.515000     0.415900     0.850060
   5.6356370e-06     0.837900     0.453500     0.496410     0.759980
   5.3906091e-06     0.851900     0.416700     0.552090     0.709970
   5.1660001e-06     0.857300     0.390700     0.582320     0.669890
   4.9593601e-06     0.857500     0.367300     0.600400     0.629920
   4.7686160e-06     0.855700     0.344700     0.613400     0.589920
   4.5919999e-06     0.853500     0.322200     0.624650     0.550000
   4.4280000e-06     0.851700     0.299400     0.635750     0.510000
   4.2753100e-06     0.851500     0.276000     0.648880     0.470030
   4.1328002e-06     0.857100     0.252000     0.671120     0.431980
   3.8745001e-06     0.869600     0.223900     0.706070     0.389410
   3.6465880e-06     0.876700     0.200200     0.728520     0.351030
   3.4440000e-06     0.883000     0.179400     0.747500     0.316820
   3.2627370e-06     0.889300     0.161100     0.764900     0.286530
   3.0996000e-06     0.895700     0.145000     0.781250     0.259750
   2.9519999e-06     0.902220     0.130800     0.796890     0.236020
   2.8178180e-06     0.909170     0.118300     0.812600     0.215110
   2.7736910e-06     0.912160     0.114200     0.818990     0.208340
   2.7551999e-06     0.913520     0.113300     0.821680     0.207000
   2.6953040e-06     0.916340     0.109000     0.827800     0.199760
   2.6379580e-06     0.919220     0.104300     0.834090     0.191750
   2.5830001e-06     0.922660    0.0995500     0.841390     0.183700
   2.5302861e-06     0.926710    0.0953900     0.849690     0.176800
   2.4796801e-06     0.930840    0.0920700     0.857990     0.171400
   2.4310591e-06     0.935910    0.0884700     0.868100     0.165600
   2.3843080e-06     0.943000    0.0869600     0.881690     0.164010
   2.3615999e-06     0.947010    0.0879100     0.889100     0.166500
   2.3437429e-06     0.950130    0.0892000     0.894790     0.169500
   2.3261540e-06     0.954770    0.0915400     0.903206     0.174800
   2.3088271e-06     0.958070    0.0995700     0.907984     0.190790
   2.2917559e-06     0.954030     0.109900     0.898100     0.209700
   2.2749361e-06     0.943890     0.113700     0.878000     0.214640
   2.2583609e-06     0.934950     0.111100     0.861790     0.207750
   2.2420250e-06     0.929630     0.106000     0.852980     0.197080
   2.2259250e-06     0.926360     0.100700     0.848000     0.186570
   2.2100540e-06     0.925390    0.0941200     0.847490     0.174200
   2.1944070e-06     0.926870    0.0893900     0.851100     0.165710
   2.1789810e-06     0.928800    0.0859200     0.855290     0.159600
   2.1637700e-06     0.930960    0.0836800     0.859680     0.155810
   2.1487700e-06     0.932680    0.0824500     0.863090     0.153800
   2.1339759e-06     0.933700    0.0812900     0.865190     0.151800
   2.1193851e-06     0.934660    0.0799800     0.867190     0.149510
   2.1049909e-06     0.935640    0.0788800     0.869200     0.147610
   2.0698501e-06     0.938360    0.0763600     0.874690     0.143310
   2.0358620e-06     0.940690    0.0755800     0.879190     0.142190
   2.0029729e-06     0.941310    0.0759100     0.880300     0.142910
   1.9869231e-06     0.940350    0.0758800     0.878500     0.142710
   1.9711290e-06     0.939220    0.0743700     0.876600     0.139700
   1.9402821e-06     0.938890    0.0708300     0.876500     0.133000
   1.9103849e-06     0.939350    0.0676500     0.877800     0.127090
   1.9074460e-06     0.939370    0.0672800     0.877890     0.126400
   1.8785451e-06     0.940580    0.0640000     0.880590     0.120390
   1.8505080e-06     0.942210    0.0612900     0.884000     0.115500
   1.8232940e-06     0.944380    0.0588700     0.888390     0.111190
   1.7968699e-06     0.946550    0.0580000     0.892590     0.109800
   1.7712001e-06     0.947160    0.0576500     0.893790     0.109210
   1.7462529e-06     0.947420    0.0557300     0.894500     0.105600
   1.7220000e-06     0.948540    0.0541400     0.896800     0.102710
   1.6984111e-06     0.949430    0.0531900     0.898590     0.101000
   1.6868571e-06     0.949460    0.0527700     0.898690     0.100210
   1.6754599e-06     0.949310    0.0518400     0.898500    0.0984240
   1.6531199e-06     0.950200    0.0495300     0.900427    0.0941270
   1.6313691e-06     0.951430    0.0481900     0.902897    0.0916990
   1.6101820e-06     0.952330    0.0469100     0.904732    0.0893480
   1.5895391e-06     0.953200    0.0456600     0.906505    0.0870460
   1.5694181e-06     0.954040    0.0444500     0.908217    0.0848140
   1.5498000e-06     0.954860    0.0432600     0.909886    0.0826140
   1.5306670e-06     0.955680    0.0420900     0.911553    0.0804490
   1.5120000e-06     0.956520    0.0409500     0.913254    0.0783390
   1.4937830e-06     0.957360    0.0398600     0.914949    0.0763210
   1.4795230e-06     0.958070    0.0390100     0.916376    0.0747490
   1.4760000e-06     0.958250    0.0388300     0.916735    0.0744180
   1.4586350e-06     0.959050    0.0378600     0.918344    0.0726190
   1.4416740e-06     0.959860    0.0368400     0.919974    0.0707220
   1.4251030e-06     0.960740    0.0358500     0.921736    0.0688850
   1.4089090e-06     0.961670    0.0349000     0.923591    0.0671250
   1.3930790e-06     0.962630    0.0340500     0.925497    0.0655550
   1.3776000e-06     0.963660    0.0331900     0.927539    0.0639680
   1.3624620e-06     0.964850    0.0324700     0.929881    0.0626570
   1.3476520e-06     0.966300    0.0320800     0.932707    0.0619980
   1.3331610e-06     0.967210    0.0327500     0.934423    0.0633520
   1.3246150e-06     0.966860    0.0330100     0.933729    0.0638320
   1.3189790e-06     0.966500    0.0325500     0.933063    0.0629190
   1.3050950e-06     0.966830    0.0309800     0.933800    0.0599050
   1.2941960e-06     0.967970    0.0298500     0.936075    0.0577880
   1.2915000e-06     0.968360    0.0298900     0.936828    0.0578890
   1.2781860e-06     0.969260    0.0297400     0.938580    0.0576520
   1.2651430e-06     0.970020    0.0291500     0.940089    0.0565520
   1.2523640e-06     0.971120    0.0284800     0.942263    0.0553150
   1.2398400e-06     0.972580    0.0280500     0.945125    0.0545620
   1.2275640e-06     0.973910    0.0280800     0.947712    0.0546950
   1.2155290e-06     0.975590    0.0277000     0.951009    0.0540480
   1.2037280e-06     0.978440    0.0281300     0.956554    0.0550470
   1.1921540e-06     0.982960    0.0308100     0.965261    0.0605700
   1.1808000e-06     0.983310    0.0412000     0.965201    0.0810250
   1.1740910e-06     0.976540    0.0463100     0.951486    0.0904470
   1.1696600e-06     0.970850    0.0448900     0.940535    0.0871630
   1.1587290e-06     0.965670    0.0376900     0.931098    0.0727920
   1.1480000e-06     0.966560    0.0321300     0.933206    0.0621110
   1.1374680e-06     0.968570    0.0307700     0.937181    0.0596060
   1.1271270e-06     0.969400    0.0297700     0.938850    0.0577180
   1.1169730e-06     0.970470    0.0290700     0.940967    0.0564230
   1.1070000e-06     0.971350    0.0294200     0.942655    0.0571540
   1.1011010e-06     0.971400    0.0299300     0.942722    0.0581480
   1.0972040e-06     0.970980    0.0303100     0.941883    0.0588610
   1.0875790e-06     0.969500    0.0298600     0.939039    0.0578990
   1.0781220e-06     0.968780    0.0282000     0.937739    0.0546390
   1.0688280e-06     0.968810    0.0267800     0.937876    0.0518890
   1.0596920e-06     0.969380    0.0251900     0.939063    0.0488370
   1.0507120e-06     0.970300    0.0243500     0.940889    0.0472540
   1.0418820e-06     0.971380    0.0236400     0.943020    0.0459270
   1.0332000e-06     0.972210    0.0238500     0.944623    0.0463740
   1.0162620e-06     0.972500    0.0240700     0.945177    0.0468160
   9.9987099e-07     0.972190    0.0237300     0.944590    0.0461400
   9.9505624e-07     0.971930    0.0237900     0.944082    0.0462440
   9.9187205e-07     0.971580    0.0235400     0.943414    0.0457420
   9.8400004e-07     0.971130    0.0225800     0.942584    0.0438560
   9.7625200e-07     0.971130    0.0214300     0.942634    0.0416230
   9.6862502e-07     0.971480    0.0204900     0.943354    0.0398110
   9.6111633e-07     0.971920    0.0197600     0.944238    0.0384100
   9.5372312e-07     0.972340    0.0191300     0.945079    0.0372020
   9.1840001e-07     0.974360    0.0168500     0.949093    0.0328360
   8.8560004e-07     0.976060    0.0154300     0.952455    0.0301210
   8.5506206e-07     0.977400    0.0141400     0.955111    0.0276410
   8.5037034e-07     0.977630    0.0139500     0.955566    0.0272760
   8.4920553e-07     0.977690    0.0139100     0.955684    0.0271990
   8.4342863e-07     0.977940    0.0137100     0.956179    0.0268150
   8.3772978e-07     0.978170    0.0134800     0.956635    0.0263710
   8.3210738e-07     0.978430    0.0132600     0.957149    0.0259480
   8.2656005e-07     0.978700    0.0130300     0.957684    0.0255050
   8.2108611e-07     0.978980    0.0128400     0.958237    0.0251400
   8.1568426e-07     0.979280    0.0126400     0.958830    0.0247560
   8.1035299e-07     0.979660    0.0125000     0.959577    0.0244920
   8.0509093e-07     0.980060    0.0125100     0.960361    0.0245210
   8.0300523e-07     0.980260    0.0125700     0.960752    0.0246440
   8.0093024e-07     0.980410    0.0128300     0.961039    0.0251570
   7.9886606e-07     0.980280    0.0131500     0.960776    0.0257810
   7.9681231e-07     0.979950    0.0132200     0.960127    0.0259100
   7.9476926e-07     0.979680    0.0130600     0.959602    0.0255890
   7.9273675e-07     0.979560    0.0128200     0.959373    0.0251160
   7.9071429e-07     0.979500    0.0125800     0.959262    0.0246440
   7.8870244e-07     0.979540    0.0123000     0.959347    0.0240970
   7.8670047e-07     0.979650    0.0120900     0.959568    0.0236880
   7.8470884e-07     0.979780    0.0119300     0.959827    0.0233780
   7.7977362e-07     0.980050    0.0116800     0.960362    0.0228940
   7.7490001e-07     0.980280    0.0114700     0.960817    0.0224880
   7.7008698e-07     0.980510    0.0112800     0.961273    0.0221200
   7.6533342e-07     0.980720    0.0111600     0.961687    0.0218900
   7.6063811e-07     0.980870    0.0110600     0.961984    0.0216970
   7.5831190e-07     0.980890    0.0110100     0.962024    0.0215990
   7.5599998e-07     0.980910    0.0108900     0.962066    0.0213640
   7.5141820e-07     0.981040    0.0106500     0.962326    0.0208960
   7.4689160e-07     0.981190    0.0104300     0.962625    0.0204680
   7.4241920e-07     0.981370    0.0101900     0.962983    0.0200000
   7.3799998e-07     0.981580    0.0100100     0.963399    0.0196510
   7.3363320e-07     0.981800   0.00983900     0.963834    0.0193200
   7.2931768e-07     0.982010   0.00973000     0.964249    0.0191100
   7.2505260e-07     0.982150   0.00964700     0.964526    0.0189500
   7.2083720e-07     0.982270   0.00949800     0.964764    0.0186590
   7.1667060e-07     0.982410   0.00935500     0.965042    0.0183810
   7.1255169e-07     0.982560   0.00924100     0.965339    0.0181600
   7.1010310e-07     0.982610   0.00917500     0.965438    0.0180310
   7.0847999e-07     0.982640   0.00911300     0.965498    0.0179100
   7.0445458e-07     0.982750   0.00893400     0.965718    0.0175600
   6.9653932e-07     0.983030   0.00857600     0.966274    0.0168610
   6.8879998e-07     0.983350   0.00827300     0.966909    0.0162710
   6.7018382e-07     0.984100   0.00762100     0.968395    0.0150000
   6.5254741e-07     0.984790   0.00706200     0.969761    0.0139090
   6.3581541e-07     0.985440   0.00656100     0.971049    0.0129310
   6.1992002e-07     0.986040   0.00609500     0.972238    0.0120200
   5.9039998e-07     0.987150   0.00527800     0.974437    0.0104200
   5.6356359e-07     0.988160   0.00459100     0.976439   0.00907330
   5.3906091e-07     0.989050   0.00401100     0.978204   0.00793420
   5.1660002e-07     0.989850   0.00352000     0.979791   0.00696850
   4.9593602e-07     0.990600   0.00310100     0.981279   0.00614370
   4.7686161e-07     0.991265   0.00274300     0.982599   0.00543810
   4.5920000e-07     0.991870   0.00243600     0.983800   0.00483240
   4.4280002e-07     0.992413   0.00217000     0.984879   0.00430710
   4.2753099e-07     0.992917   0.00194000     0.985880   0.00385250
   4.1327998e-07     0.993369   0.00174000     0.986779   0.00345690
   3.8745000e-07     0.994169   0.00141200     0.988370   0.00280750
   3.6465880e-07     0.994842   0.00115900     0.989709   0.00230600
   3.4439999e-07     0.995417  0.000960900     0.990854   0.00191300
   3.2627371e-07     0.995911  0.000803300     0.991838   0.00160000
   3.0996001e-07     0.996340  0.000677500     0.992693   0.00135000
   2.9519999e-07     0.996716  0.000575900     0.993442   0.00114800
   2.8178180e-07     0.997051  0.000492700     0.994111  0.000982490
   2.6953041e-07     0.997354  0.000424300     0.994715  0.000846350
   2.5830001e-07     0.997637  0.000367500     0.995279  0.000733260
   2.4796801e-07     0.997921  0.000320100     0.995846  0.000638870
   2.3843080e-07     0.998274  0.000280100     0.996551  0.000559230
   2.3616001e-07     0.998415  0.000271100     0.996832  0.000541340
   2.3490719e-07     0.998557  0.000266200     0.997116  0.000531630
   2.3481820e-07     0.998570  0.000283700     0.997142  0.000566590
   2.3459599e-07     0.998590  0.000318200     0.997182  0.000635500
   2.3437431e-07     0.998595  0.000326200     0.997192  0.000651480
   2.3393210e-07     0.998625  0.000333200     0.997252  0.000665480
   2.3349151e-07     0.998676  0.000331400     0.997354  0.000661920
   2.3305260e-07     0.998753  0.000338400     0.997507  0.000675960
   2.3261539e-07     0.998839  0.000371700     0.997679  0.000742540
   2.3217979e-07     0.998958  0.000387400     0.997917  0.000773990
   2.3200600e-07     0.999033  0.000412900     0.998066  0.000825000
   2.3183250e-07     0.999122  0.000447100     0.998245  0.000893420
   2.3165920e-07     0.999219  0.000516400     0.998438   0.00103200
   2.3148621e-07     0.999315  0.000620400     0.998630   0.00123990
   2.3131340e-07     0.999443  0.000741400     0.998885   0.00148200
   2.3114090e-07     0.999576  0.000914900     0.999152   0.00182900
   2.3096870e-07     0.999592   0.00133300     0.999183   0.00266490
   2.3079671e-07     0.999349   0.00182000     0.998696   0.00363760
   2.3062499e-07     0.998919   0.00199300     0.997835   0.00398170
   2.3045349e-07     0.998507   0.00188900     0.997013   0.00377240
   2.3002599e-07     0.998083   0.00137800     0.996168   0.00275070
   2.2960000e-07     0.998130  0.000994400     0.996262   0.00198510
   2.2917560e-07     0.998263  0.000927100     0.996528   0.00185100
   2.2875280e-07     0.998316  0.000893500     0.996634   0.00178400
   2.2833149e-07     0.998380  0.000881900     0.996762   0.00176090
   2.2791179e-07     0.998427  0.000948000     0.996856   0.00189300
   2.2749361e-07     0.998387   0.00105700     0.996776   0.00211060
   2.2728511e-07     0.998312   0.00109900     0.996626   0.00219430
   2.2707691e-07     0.998235   0.00106300     0.996472   0.00212220
   2.2666180e-07     0.998171  0.000974300     0.996344   0.00194500
   2.2624820e-07     0.998150  0.000903200     0.996303   0.00180310
   2.2583611e-07     0.998173  0.000815000     0.996349   0.00162700
   2.2542551e-07     0.998226  0.000786900     0.996454   0.00157100
   2.2501629e-07     0.998291  0.000767300     0.996584   0.00153200
   2.2460870e-07     0.998352  0.000824400     0.996706   0.00164610
   2.2420250e-07     0.998326  0.000915000     0.996654   0.00182690
   2.2379779e-07     0.998273  0.000912600     0.996548   0.00182200
   2.2339460e-07     0.998260  0.000914600     0.996522   0.00182600
   2.2299280e-07     0.998237  0.000949700     0.996476   0.00189610
   2.2275241e-07     0.998191  0.000973300     0.996384   0.00194310
   2.2259250e-07     0.998155  0.000963800     0.996312   0.00192400
   2.2219350e-07     0.998088  0.000910700     0.996179   0.00181790
   2.2179610e-07     0.998064  0.000841100     0.996131   0.00167890
   2.2140001e-07     0.998071  0.000788500     0.996145   0.00157400
   2.2061211e-07     0.998093  0.000725400     0.996189   0.00144800
   2.1944069e-07     0.998135  0.000660700     0.996273   0.00131890
   2.1751579e-07     0.998203  0.000614100     0.996409   0.00122600
   2.1562430e-07     0.998249  0.000597000     0.996501   0.00119190
   2.1376549e-07     0.998279  0.000580500     0.996561   0.00115900
   2.1014239e-07     0.998332  0.000549400     0.996666   0.00109700
   2.0663999e-07     0.998381  0.000520300     0.996764   0.00103890
   1.9997419e-07     0.998477  0.000467500     0.996956  0.000933580
   1.9372500e-07     0.998573  0.000421100     0.997148  0.000841000
   1.8785460e-07     0.998672  0.000380300     0.997346  0.000759590
   1.8232940e-07     0.998786  0.000344200     0.997573  0.000687560
   1.8099850e-07     0.998821  0.000335800     0.997643  0.000670810
   1.7968700e-07     0.998863  0.000327700     0.997727  0.000654650
   1.7839420e-07     0.998917  0.000320800     0.997835  0.000640910
   1.7813790e-07     0.998931  0.000319500     0.997863  0.000638320
   1.7788240e-07     0.998946  0.000318100     0.997893  0.000635530
   1.7762750e-07     0.998962  0.000316700     0.997925  0.000632740
   1.7737340e-07     0.998982  0.000315400     0.997965  0.000630160
   1.7712000e-07     0.999004  0.000314000     0.998010  0.000627370
   1.7686730e-07     0.999032  0.000312700     0.998064  0.000624790
   1.7661540e-07     0.999066  0.000311500     0.998133  0.000622420
   1.7636420e-07     0.999112  0.000310400     0.998225  0.000620250
   1.7611360e-07     0.999181  0.000309500     0.998363  0.000618490
   1.7598870e-07     0.999234  0.000310000     0.998469  0.000619530
   1.7586380e-07     0.999314  0.000316300     0.998629  0.000632170
   1.7573920e-07     0.999436  0.000347500     0.998873  0.000694610
   1.7561470e-07     0.999585  0.000453500     0.999170  0.000906620
   1.7549050e-07     0.999687  0.000699700     0.999373   0.00139900
   1.7536629e-07     0.999623   0.00107500     0.999246   0.00214920
   1.7526720e-07     0.999406   0.00135200     0.998810   0.00270240
   1.7521760e-07     0.999254   0.00143700     0.998507   0.00287190
   1.7516810e-07     0.999092   0.00146900     0.998182   0.00293530
   1.7511860e-07     0.998932   0.00144600     0.997863   0.00288890
   1.7506920e-07     0.998782   0.00137300     0.997564   0.00274270
   1.7501980e-07     0.998659   0.00126500     0.997318   0.00252660
   1.7497040e-07     0.998571   0.00114500     0.997143   0.00228670
   1.7492099e-07     0.998519   0.00102500     0.997039   0.00204700
   1.7487170e-07     0.998502  0.000909400     0.997005   0.00181610
   1.7474840e-07     0.998545  0.000714000     0.997092   0.00142590
   1.7462540e-07     0.998617  0.000663900     0.997235   0.00132600
   1.7450250e-07     0.998641  0.000658400     0.997283   0.00131500
   1.7437980e-07     0.998629  0.000615800     0.997259   0.00122990
   1.7425721e-07     0.998628  0.000540200     0.997258   0.00107890
   1.7413480e-07     0.998656  0.000473200     0.997314  0.000945130
   1.7401261e-07     0.998703  0.000436400     0.997407  0.000871670
   1.7389060e-07     0.998747  0.000422500     0.997495  0.000843940
   1.7364710e-07     0.998805  0.000417400     0.997611  0.000833800
   1.7340420e-07     0.998843  0.000416300     0.997687  0.000831640
   1.7316201e-07     0.998875  0.000415200     0.997751  0.000829470
   1.7292050e-07     0.998910  0.000414200     0.997821  0.000827500
   1.7267970e-07     0.998967  0.000417300     0.997935  0.000833740
   1.7243950e-07     0.999050  0.000474000     0.998100  0.000947100
   1.7220000e-07     0.999033  0.000664100     0.998066   0.00132690
   1.7215220e-07     0.999001  0.000698700     0.998002   0.00139600
   1.7210440e-07     0.998962  0.000721700     0.997925   0.00144190
   1.7205660e-07     0.998919  0.000730800     0.997839   0.00146000
   1.7200890e-07     0.998876  0.000724300     0.997753   0.00144700
   1.7196120e-07     0.998839  0.000704300     0.997679   0.00140700
   1.7191350e-07     0.998809  0.000674300     0.997619   0.00134700
   1.7184200e-07     0.998780  0.000625800     0.997561   0.00125010
   1.7172300e-07     0.998773  0.000565200     0.997547   0.00112900
   1.7160421e-07     0.998790  0.000534100     0.997581   0.00106690
   1.7148550e-07     0.998801  0.000530100     0.997603   0.00105890
   1.7136700e-07     0.998800  0.000525600     0.997601   0.00104990
   1.7124860e-07     0.998796  0.000509100     0.997593   0.00101700
   1.7113040e-07     0.998798  0.000487600     0.997597  0.000974030
   1.7101240e-07     0.998807  0.000472000     0.997615  0.000942870
   1.7077690e-07     0.998829  0.000461600     0.997659  0.000922120
   1.7054200e-07     0.998843  0.000459800     0.997687  0.000918540
   1.7030770e-07     0.998851  0.000458400     0.997703  0.000915750
   1.7007410e-07     0.998857  0.000457100     0.997715  0.000913160
   1.6984110e-07     0.998861  0.000455700     0.997723  0.000910360
   1.6868570e-07     0.998877  0.000448600     0.997755  0.000896190
   1.6754600e-07     0.998888  0.000441500     0.997777  0.000882020
   1.6642150e-07     0.998897  0.000434600     0.997795  0.000868240
   1.6531200e-07     0.998907  0.000427700     0.997815  0.000854470
   1.6421720e-07     0.998916  0.000421100     0.997833  0.000841290
   1.6313680e-07     0.998924  0.000414500     0.997849  0.000828110
   1.6207061e-07     0.998933  0.000408200     0.997867  0.000815530
   1.6101820e-07     0.998942  0.000401900     0.997885  0.000802950
   1.5997940e-07     0.998951  0.000395900     0.997903  0.000790970
   1.5895390e-07     0.998960  0.000390000     0.997921  0.000779190
   1.5794140e-07     0.998968  0.000384100     0.997937  0.000767410
   1.5694180e-07     0.998976  0.000378500     0.997953  0.000756220
   1.5595470e-07     0.998984  0.000373000     0.997969  0.000745240
   1.5498000e-07     0.998991  0.000367600     0.997983  0.000734460
   1.5401740e-07     0.998998  0.000360200     0.997997  0.000719680
   1.5306670e-07     0.999007  0.000353000     0.998014  0.000705300
   1.5212760e-07     0.999015  0.000345900     0.998031  0.000691120
   1.5120000e-07     0.999024  0.000339000     0.998049  0.000677340
   1.5028360e-07     0.999034  0.000332300     0.998068  0.000663960
   1.4937830e-07     0.999043  0.000325800     0.998087  0.000650980
   1.4848380e-07     0.999054  0.000319400     0.998108  0.000638200
   1.4795230e-07     0.999061  0.000315500     0.998122  0.000630410
   1.4777590e-07     0.999063  0.000314500     0.998127  0.000628410
   1.4759999e-07     0.999066  0.000313500     0.998132  0.000626410
   1.4742450e-07     0.999068  0.000312600     0.998137  0.000624620
   1.4724940e-07     0.999071  0.000311600     0.998142  0.000622620
   1.4707471e-07     0.999073  0.000310400     0.998147  0.000620220
   1.4690050e-07     0.999076  0.000309200     0.998153  0.000617830
   1.4672660e-07     0.999080  0.000308100     0.998160  0.000615630
   1.4655320e-07     0.999084  0.000307700     0.998168  0.000614840
   1.4638019e-07     0.999088  0.000308500     0.998177  0.000616440
   1.4620760e-07     0.999092  0.000311200     0.998185  0.000621830
   1.4603530e-07     0.999094  0.000313900     0.998188  0.000627230
   1.4586350e-07     0.999095  0.000316600     0.998190  0.000632630
   1.4569210e-07     0.999095  0.000317900     0.998190  0.000635220
   1.4552110e-07     0.999095  0.000319200     0.998191  0.000637820
   1.4535050e-07     0.999095  0.000320400     0.998191  0.000640220
   1.4518030e-07     0.999095  0.000321500     0.998190  0.000642420
   1.4501050e-07     0.999094  0.000322500     0.998188  0.000644420
   1.4484110e-07     0.999092  0.000322600     0.998184  0.000644610
   1.4467210e-07     0.999090  0.000320900     0.998180  0.000641220
   1.4450350e-07     0.999089  0.000318400     0.998178  0.000636220
   1.4433530e-07     0.999089  0.000315500     0.998178  0.000630420
   1.4416740e-07     0.999089  0.000312800     0.998179  0.000625030
   1.4400000e-07     0.999090  0.000310300     0.998181  0.000620040
   1.4383290e-07     0.999092  0.000308000     0.998185  0.000615440
   1.4366630e-07     0.999094  0.000306300     0.998188  0.000612040
   1.4350000e-07     0.999096  0.000304900     0.998192  0.000609250
   1.4333409e-07     0.999097  0.000303500     0.998195  0.000606450
   1.4316860e-07     0.999099  0.000302100     0.998198  0.000603660
   1.4300350e-07     0.999100  0.000300900     0.998200  0.000601260
   1.4283870e-07     0.999102  0.000299700     0.998204  0.000598860
   1.4267430e-07     0.999103  0.000298500     0.998206  0.000596460
   1.4251040e-07     0.999104  0.000297300     0.998209  0.000594070
   1.4218350e-07     0.999107  0.000294700     0.998215  0.000588870
   1.4185810e-07     0.999110  0.000292200     0.998220  0.000583880
   1.4153430e-07     0.999113  0.000289600     0.998226  0.000578690
   1.4121180e-07     0.999116  0.000286800     0.998233  0.000573090
   1.4089090e-07     0.999120  0.000284400     0.998240  0.000568300
   1.4057140e-07     0.999123  0.000282400     0.998247  0.000564300
   1.4025340e-07     0.999127  0.000280600     0.998254  0.000560710
   1.3993680e-07     0.999130  0.000279000     0.998261  0.000557510
   1.3962160e-07     0.999134  0.000277500     0.998268  0.000554520
   1.3930789e-07     0.999137  0.000276100     0.998274  0.000551720
   1.3852960e-07     0.999143  0.000272500     0.998287  0.000544530
   1.3776000e-07     0.999150  0.000268400     0.998300  0.000536340
   1.3730230e-07     0.999154  0.000265700     0.998308  0.000530950
   1.3699890e-07     0.999156  0.000263700     0.998312  0.000526950
   1.3624619e-07     0.999163  0.000258600     0.998326  0.000516770
   1.3550160e-07     0.999170  0.000253400     0.998340  0.000506380
   1.3476521e-07     0.999177  0.000248400     0.998354  0.000496390
   1.3403679e-07     0.999184  0.000243700     0.998369  0.000487000
   1.3331610e-07     0.999192  0.000239600     0.998384  0.000478810
   1.3260320e-07     0.999199  0.000235500     0.998398  0.000470620
   1.3189790e-07     0.999206  0.000231600     0.998413  0.000462830
   1.3120000e-07     0.999213  0.000227800     0.998427  0.000455240
   1.3050950e-07     0.999220  0.000224100     0.998440  0.000447850
   1.2982620e-07     0.999226  0.000220500     0.998453  0.000440660
   1.2915001e-07     0.999233  0.000216600     0.998466  0.000432870
   1.2848080e-07     0.999240  0.000212900     0.998480  0.000425480
   1.2781860e-07     0.999246  0.000209200     0.998493  0.000418080
   1.2716310e-07     0.999253  0.000205600     0.998506  0.000410890
   1.2651430e-07     0.999259  0.000202000     0.998519  0.000403700
   1.2587210e-07     0.999266  0.000198600     0.998532  0.000396910
   1.2523640e-07     0.999272  0.000195200     0.998545  0.000390120
   1.2460700e-07     0.999278  0.000191900     0.998557  0.000383520
   1.2398401e-07     0.999285  0.000188700     0.998570  0.000377130
   1.1808000e-07     0.999344  0.000159800     0.998689  0.000319390
   1.1271270e-07     0.999399  0.000136100     0.998798  0.000272040
   1.0781219e-07     0.999448  0.000116600     0.998897  0.000233070
   1.0332000e-07     0.999493  0.000100500     0.998987  0.000200900
   9.9187205e-08     0.999536  8.70400e-05     0.999072  0.000174000
   9.5372309e-08     0.999590  7.57800e-05     0.999181  0.000151500
   9.5313648e-08     0.999592  7.55800e-05     0.999185  0.000151100
   9.5299003e-08     0.999593  7.63800e-05     0.999186  0.000152700
   9.5225812e-08     0.999595  7.81800e-05     0.999190  0.000156300
   9.5152733e-08     0.999597  7.83800e-05     0.999193  0.000156700
   9.5079758e-08     0.999599  7.81800e-05     0.999199  0.000156300
   9.5006899e-08     0.999603  7.83800e-05     0.999206  0.000156700
   9.4934151e-08     0.999607  7.97800e-05     0.999215  0.000159500
   9.4861520e-08     0.999614  8.03300e-05     0.999228  0.000160600
   9.4788987e-08     0.999624  8.43800e-05     0.999247  0.000168700
   9.4716583e-08     0.999638  9.63800e-05     0.999277  0.000192690
   9.4687642e-08     0.999636  0.000104300     0.999273  0.000208520
   9.4658718e-08     0.999630  0.000123400     0.999260  0.000246710
   9.4629842e-08     0.999621  0.000145800     0.999243  0.000291490
   9.4600947e-08     0.999614  0.000153700     0.999227  0.000307280
   9.4572082e-08     0.999602  0.000148800     0.999205  0.000297480
   9.4543229e-08     0.999589  0.000139900     0.999178  0.000279680
   9.4514398e-08     0.999579  0.000131000     0.999158  0.000261890
   9.4485597e-08     0.999575  0.000119700     0.999151  0.000239300
   9.4456808e-08     0.999575  0.000112400     0.999150  0.000224700
   9.4428030e-08     0.999576  0.000107500     0.999152  0.000214910
   9.4356172e-08     0.999582  0.000104300     0.999164  0.000208510
   9.4284408e-08     0.999586  0.000102700     0.999172  0.000205310
   9.4212772e-08     0.999589  0.000102000     0.999179  0.000203920
   9.4141229e-08     0.999591  0.000105000     0.999182  0.000209910
   9.4069802e-08     0.999589  0.000110000     0.999178  0.000219910
   9.3998492e-08     0.999584  0.000110100     0.999169  0.000220110
   9.3927281e-08     0.999581  0.000105900     0.999162  0.000211710
   9.3856169e-08     0.999580  0.000102600     0.999160  0.000205110
   9.3785179e-08     0.999581  9.83900e-05     0.999163  0.000196700
   9.3714288e-08     0.999584  9.69900e-05     0.999168  0.000193900
   9.3643513e-08     0.999588  9.59900e-05     0.999175  0.000191900
   9.3572831e-08     0.999590  9.85400e-05     0.999180  0.000197000
   9.3502272e-08     0.999590  0.000102700     0.999179  0.000205320
   9.3431812e-08     0.999588  0.000102500     0.999176  0.000204920
   9.3361450e-08     0.999587  0.000102400     0.999174  0.000204720
   9.3291199e-08     0.999586  0.000104000     0.999171  0.000207910
   9.3249098e-08     0.999584  0.000105100     0.999169  0.000210110
   9.3221047e-08     0.999583  0.000104600     0.999166  0.000209110
   9.3151018e-08     0.999580  0.000102000     0.999161  0.000203910
   9.3081081e-08     0.999579  9.86400e-05     0.999159  0.000197200
   9.3011261e-08     0.999580  9.60900e-05     0.999160  0.000192100
   9.2871912e-08     0.999582  9.29400e-05     0.999163  0.000185800
   9.2525373e-08     0.999586  8.87900e-05     0.999172  0.000177510
   9.1840001e-08     0.999593  8.46800e-05     0.999187  0.000169290
   9.1164710e-08     0.999599  8.24800e-05     0.999199  0.000164890
   8.9843478e-08     0.999610  7.83800e-05     0.999220  0.000156700
   8.8559999e-08     0.999620  7.44800e-05     0.999239  0.000148900
   8.5506210e-08     0.999643  6.57700e-05     0.999286  0.000131490
   8.2656002e-08     0.999665  5.83200e-05     0.999330  0.000116600
   7.7490002e-08     0.999704  4.63100e-05     0.999409  9.25930e-05
   7.2931772e-08     0.999739  3.72300e-05     0.999477  7.44410e-05
   6.8880001e-08     0.999770  3.02800e-05     0.999541  6.05460e-05
   6.7566207e-08     0.999787  2.82300e-05     0.999574  5.64480e-05
   6.7536772e-08     0.999788  2.81900e-05     0.999576  5.63680e-05
   6.7529408e-08     0.999788  2.85300e-05     0.999576  5.70480e-05
   6.7492650e-08     0.999789  2.93700e-05     0.999578  5.87280e-05
   6.7455933e-08     0.999790  2.94900e-05     0.999580  5.89680e-05
   6.7419250e-08     0.999791  2.94400e-05     0.999582  5.88680e-05
   6.7382609e-08     0.999792  2.95600e-05     0.999585  5.91080e-05
   6.7346008e-08     0.999795  3.02200e-05     0.999589  6.04280e-05
   6.7309447e-08     0.999798  3.05200e-05     0.999596  6.10280e-05
   6.7272928e-08     0.999803  3.23300e-05     0.999607  6.46470e-05
   6.7236437e-08     0.999805  3.76900e-05     0.999611  7.53650e-05
   6.7221862e-08     0.999803  4.12200e-05     0.999606  8.24240e-05
   6.7207293e-08     0.999801  4.97300e-05     0.999601  9.94400e-05
   6.7192718e-08     0.999798  5.96600e-05     0.999596  0.000119300
   6.7178148e-08     0.999795  6.31600e-05     0.999591  0.000126290
   6.7163602e-08     0.999793  6.10090e-05     0.999586  0.000121990
   6.7149050e-08     0.999790  5.71110e-05     0.999581  0.000114200
   6.7134498e-08     0.999786  5.31600e-05     0.999572  0.000106300
   6.7119970e-08     0.999782  4.81600e-05     0.999564  9.62990e-05
   6.7105441e-08     0.999780  4.49300e-05     0.999561  8.98400e-05
   6.7090912e-08     0.999780  4.27800e-05     0.999560  8.55410e-05
   6.7076390e-08     0.999780  4.16900e-05     0.999561  8.33620e-05
   6.7061879e-08     0.999781  4.14800e-05     0.999563  8.29420e-05
   6.7047367e-08     0.999783  4.12800e-05     0.999566  8.25420e-05
   6.7032868e-08     0.999784  4.09000e-05     0.999568  8.17820e-05
   6.7018380e-08     0.999785  4.07000e-05     0.999570  8.13820e-05
   6.6982169e-08     0.999786  4.04600e-05     0.999572  8.09030e-05
   6.6945999e-08     0.999786  4.18200e-05     0.999573  8.36220e-05
   6.6909881e-08     0.999785  4.40600e-05     0.999571  8.81010e-05
   6.6873792e-08     0.999784  4.41700e-05     0.999568  8.83210e-05
   6.6837738e-08     0.999783  4.23400e-05     0.999565  8.46620e-05
   6.6801731e-08     0.999782  4.08700e-05     0.999564  8.17220e-05
   6.6765753e-08     0.999783  3.90400e-05     0.999565  7.80630e-05
   6.6729821e-08     0.999784  3.84500e-05     0.999567  7.68830e-05
   6.6693919e-08     0.999785  3.80400e-05     0.999570  7.60640e-05
   6.6658069e-08     0.999786  3.92200e-05     0.999571  7.84230e-05
   6.6622248e-08     0.999786  4.11000e-05     0.999572  8.21820e-05
   6.6586467e-08     0.999786  4.10400e-05     0.999571  8.20620e-05
   6.6550728e-08     0.999785  4.10700e-05     0.999570  8.21220e-05
   6.6515018e-08     0.999784  4.18000e-05     0.999568  8.35820e-05
   6.6493620e-08     0.999783  4.22900e-05     0.999567  8.45620e-05
   6.6479360e-08     0.999783  4.20900e-05     0.999566  8.41620e-05
   6.6443731e-08     0.999782  4.09700e-05     0.999564  8.19220e-05
   6.6408142e-08     0.999781  3.95100e-05     0.999563  7.90030e-05
   6.6372601e-08     0.999781  3.84000e-05     0.999563  7.67830e-05
   6.6337083e-08     0.999782  3.76400e-05     0.999564  7.52640e-05
   6.6301599e-08     0.999782  3.70500e-05     0.999565  7.40840e-05
   6.6266168e-08     0.999783  3.64700e-05     0.999566  7.29240e-05
   6.6230772e-08     0.999783  3.64100e-05     0.999567  7.28040e-05
   6.6195411e-08     0.999784  3.63600e-05     0.999568  7.27040e-05
   6.6160079e-08     0.999784  3.63000e-05     0.999568  7.25840e-05
   6.6124799e-08     0.999784  3.62500e-05     0.999568  7.24840e-05
   6.5948942e-08     0.999785  3.49500e-05     0.999571  6.98850e-05
   6.5254740e-08     0.999790  3.36700e-05     0.999580  6.73260e-05
   6.1992003e-08     0.999808  2.80700e-05     0.999616  5.61290e-05
   5.6356372e-08     0.999839  1.99500e-05     0.999679  3.98940e-05
   5.1659998e-08     0.999864  1.45600e-05     0.999729  2.91160e-05
   4.7686149e-08     0.999884  1.08800e-05     0.999768  2.17570e-05
   4.4280000e-08     0.999900  8.28100e-06     0.999800  1.65600e-05
   4.1328001e-08     0.999913  6.42100e-06     0.999826  1.28410e-05
   3.5424001e-08     0.999936  3.61500e-06     0.999872  7.22950e-06
   3.0996001e-08     0.999951  2.18800e-06     0.999902  4.37580e-06
   2.7552000e-08     0.999962  1.40100e-06     0.999923  2.80190e-06
   2.4796801e-08     0.999969  9.38000e-07     0.999938  1.87590e-06
   2.2542549e-08     0.999974  6.51500e-07     0.999949  1.30300e-06
   2.0664000e-08     0.999979  4.66600e-07     0.999957  9.33180e-07
   1.9074460e-08     0.999982  3.42900e-07     0.999964  6.85790e-07
   1.7712000e-08     0.999985  2.57600e-07     0.999970  5.15190e-07
   1.7462540e-08     0.999986  2.43900e-07     0.999971  4.87790e-07
   1.7450249e-08     0.999986  2.43200e-07     0.999972  4.86390e-07
   1.7447790e-08     0.999986  2.49900e-07     0.999972  4.99790e-07
   1.7445339e-08     0.999986  2.56500e-07     0.999972  5.12990e-07
   1.7442880e-08     0.999986  2.70000e-07     0.999972  5.39990e-07
   1.7440430e-08     0.999986  2.76600e-07     0.999972  5.53190e-07
   1.7437970e-08     0.999986  2.76500e-07     0.999972  5.52990e-07
   1.7435520e-08     0.999986  2.76300e-07     0.999972  5.52590e-07
   1.7433069e-08     0.999986  2.83000e-07     0.999972  5.65990e-07
   1.7430620e-08     0.999986  3.10000e-07     0.999972  6.19990e-07
   1.7428170e-08     0.999986  3.77600e-07     0.999972  7.55190e-07
   1.7425721e-08     0.999986  5.13000e-07     0.999972  1.02600e-06
