      123984.      151.510      151.560     -15.8850      45926.0
      12398.4      47.8360      48.0020     -15.8840      4592.50
      2000.06      19.0340      19.4460     -15.8690      740.280
      1499.93      16.4200      16.8950     -15.8560      554.830
      1239.84      14.8790      15.4020     -15.8430      458.330
      1200.23      14.6300      15.1620     -15.8400      443.630
      999.871      13.2990      13.8810     -15.8200      369.220
      700.079      11.0090      11.7030     -15.7540      257.680
      499.935      9.16360      9.98000     -15.6300      182.910
      413.280      8.23500      9.12850     -15.5140      150.350
      354.240      7.53580      8.49540     -15.3840      128.040
      299.986      6.82930      7.86340     -15.1930      107.400
      250.018      6.10590      7.22390     -14.9030      88.2160
      200.007      5.28370      6.50440     -14.3910      68.7350
      174.995      4.82180      6.10120     -13.9750      58.8380
      149.993      4.31470      5.65560     -13.3690      48.8040
      135.000      3.98360      5.36050     -12.8660      42.7090
      123.984      3.72510      5.12600     -12.4000      38.1900
      118.080      3.58050      4.99280     -12.1080      35.7540
      112.713      3.44520      4.86640     -11.8120      33.5320
      103.320      3.19900      4.63100     -11.2130      29.6290
      99.9871      3.10850      4.54250     -10.9720      28.2410
      95.3723      2.98050      4.41510     -10.6090      26.3190
      91.8400      2.88040      4.31320     -10.3070      24.8470
      88.5600      2.78560      4.21490     -10.0060      23.4820
      85.5062      2.69590      4.12000     -9.70600      22.2140
      82.6560      2.61080      4.02800     -9.40900      21.0330
      79.9897      2.53010      3.93890     -9.11300      19.9320
      77.4900      2.45350      3.85240     -8.82110      18.9030
      75.1418      2.38070      3.76830     -8.53220      17.9420
      72.9318      2.31150      3.68640     -8.24690      17.0420
      70.8480      2.24560      3.60670     -7.96570      16.1980
      70.0079      2.21890      3.57380     -7.84880      15.8600
      68.8800      2.18290      3.52900     -7.68860      15.4070
      67.0184      2.12320      3.45310     -7.41600      14.6640
      65.2547      2.06640      3.37910     -7.14810      13.9650
      63.5815      2.01220      3.30670     -6.88500      13.3070
      61.9920      1.96059      3.23590     -6.62690      12.6880
      59.0400      1.86447      3.09870     -6.12580      11.5550
      56.3564      1.77708      2.96710     -5.64550      10.5450
      53.9061      1.69762      2.84040     -5.18610      9.64400
      51.6600      1.62541      2.71840     -4.74760      8.83700
      49.9935      1.57245      2.62380     -4.41160      8.25150
      45.0851      1.42172      2.32230     -3.37160      6.60320
      41.3280      1.31563      2.06400     -2.52940      5.43100
      37.5709      1.22473      1.77620     -1.65500      4.35070
      33.5092      1.15886      1.42430    -0.685700      3.30120
      29.9986      1.15494      1.08430     0.158120      2.50470
      27.5520      1.20170     0.838460     0.741070      2.01520
      24.9968      1.30309     0.600150      1.33787      1.56410
      24.3106      1.33797     0.543240      1.49507      1.45370
      23.8431      1.36305     0.506600      1.60126      1.38110
      23.3932      1.38798     0.473050      1.70271      1.31320
      22.9600      1.41256     0.442340      1.79965      1.24970
      22.5425      1.43664     0.414230      1.89234      1.19020
      22.1400      1.46012     0.388490      1.98102      1.13450
      21.7516      1.48291     0.364890      2.06590      1.08220
      21.3766      1.50498     0.343230      2.14710      1.03310
      21.0142      1.52628     0.323330      2.22500     0.986970
      20.6640      1.54682     0.305010      2.29960     0.943590
      20.3253      1.56658     0.288130      2.37120     0.902760
      20.0007      1.58540     0.272700      2.43910     0.864680
      19.3725      1.62138     0.244800      2.56890     0.793840
      18.7855      1.65437     0.220950      2.68810     0.731050
      18.2329      1.68476     0.200310      2.79830     0.674950
      17.7120      1.71402     0.182230      2.90470     0.624690
      17.2200      1.73983     0.166540      2.99930     0.579520
      16.7546      1.76366     0.152770      3.08720     0.538850
      16.3137      1.78570     0.140610      3.16890     0.502160
      15.8954      1.80610     0.129830      3.24510     0.468970
      15.4980      1.82502     0.120240      3.31620     0.438890
      15.1200      1.84259     0.111680      3.38270     0.411570
      14.9993      1.84811     0.109060      3.40360     0.403110
      14.7600      1.85893     0.104020      3.44480     0.386720
      14.4167      1.87416    0.0971300      3.50300     0.364080
      14.0891      1.88837    0.0909250      3.55770     0.343400
      13.7760      1.90279    0.0852720      3.61340     0.324510
      13.4765      1.91521    0.0802000      3.66160     0.307200
      13.1898      1.92797    0.0755560      3.71140     0.291340
      12.9150      1.93888    0.0713740      3.75420     0.276770
      12.6514      1.95025    0.0675310      3.79890     0.263400
      12.3984      1.96100    0.0640290      3.84140     0.251120
      12.2756      1.96672    0.0623840      3.86410     0.245390
      12.1553      1.97341    0.0607890      3.89060     0.239920
      11.9215      1.98748    0.0578520      3.94670     0.229960
      11.6966      2.01430    0.0555820      4.05420     0.223910
      11.6526      2.02570    0.0556870      4.10040     0.225610
      11.6308      2.03640    0.0560560      4.14370     0.228300
      11.6199      2.04230    0.0564600      4.16760     0.230610
      11.6090      2.05030    0.0570690      4.20060     0.234020
      11.5981      2.05950    0.0580600      4.23810     0.239150
      11.5873      2.07190    0.0597020      4.28940     0.247400
      11.5765      2.08990    0.0625260      4.36370     0.261340
      11.5657      2.11550    0.0679100      4.47050     0.287320
      11.5549      2.15740    0.0796410      4.64810     0.343640
      11.5441      2.23220     0.112110      4.96990     0.500480
      11.5334      2.39480     0.252750      5.67130      1.21060
      11.5248      2.36300     0.842500      4.87410      3.98170
      11.5238      2.24870     0.933250      4.18550      4.19710
      11.5227      2.10370     0.986700      3.45200      4.15140
      11.5173      1.55106     0.679240      1.94442      2.10710
      11.5120      1.56248     0.327160      2.33430      1.02240
      11.5013      1.72830     0.134530      2.96890     0.465020
      11.4906      1.80969    0.0912450      3.26670     0.330250
      11.4800      1.85318    0.0753220      3.42860     0.279170
      11.4694      1.88008    0.0677030      3.53010     0.254570
      11.4588      1.89813    0.0634090      3.59890     0.240720
      11.4482      1.91064    0.0607510      3.64690     0.232150
      11.4376      1.92094    0.0589230      3.68660     0.226380
      11.4271      1.92904    0.0576090      3.71790     0.222260
      11.4166      1.93492    0.0566400      3.74070     0.219190
      11.3956      1.94558    0.0552340      3.78220     0.214920
      11.3539      1.95805    0.0535770      3.83110     0.209810
      11.2713      1.97192    0.0517470      3.88580     0.204080
      11.0700      1.98977    0.0490010      3.95680     0.195000
      10.8758      1.99957    0.0468970      3.99610     0.187550
      10.6883      2.00790    0.0450250      4.02970     0.180810
      10.5071      2.01490    0.0433340      4.05780     0.174620
      10.3320      2.02150    0.0417740      4.08480     0.168890
      10.1626      2.02680    0.0403480      4.10640     0.163560
      9.99871      2.03290    0.0390130      4.13130     0.158620
      9.84000      2.03770    0.0377960      4.15090     0.154040
      9.68625      2.04230    0.0366550      4.16970     0.149720
      9.66360      2.04300    0.0364990      4.17240     0.149130
      9.53723      2.04670    0.0356050      4.18760     0.145740
      9.39273      2.05080    0.0346290      4.20480     0.142040
      9.25254      2.05590    0.0337100      4.22560     0.138610
      9.11647      2.05970    0.0328670      4.24130     0.135390
      8.98435      2.06330    0.0320820      4.25630     0.132390
      8.85600      2.06680    0.0313520      4.27080     0.129600
      8.73127      2.07020    0.0306730      4.28460     0.127000
      8.61000      2.07340    0.0300410      4.29790     0.124570
      8.49205      2.07540    0.0294620      4.30640     0.122290
      8.37730      2.07940    0.0289040      4.32300     0.120210
      8.26560      2.08220    0.0283940      4.33480     0.118250
      7.99897      2.08880    0.0272590      4.36240     0.113880
      7.74900      2.09480    0.0263430      4.38750     0.110360
      7.51418      2.10030    0.0256270      4.41040     0.107650
      7.29318      2.10520    0.0250260      4.43140     0.105370
      7.08480      2.10980    0.0245220      4.45060     0.103470
      6.91104      2.11350    0.0241520      4.46620     0.102090
      6.70184      2.11680    0.0237650      4.48020     0.100610
      6.52547      2.12030    0.0234720      4.49520    0.0995370
      6.35815      2.12360    0.0232460      4.50910    0.0987320
      6.19920      2.12660    0.0230380      4.52210    0.0979850
      5.90400      2.13100    0.0226480      4.54080    0.0965300
      5.63564      2.13570    0.0223560      4.56090    0.0954950
      5.51040      2.13790    0.0222500      4.57000    0.0951350
      5.16600      2.14240    0.0220110      4.58960    0.0943150
      4.99935      2.14500    0.0219270      4.60060    0.0940670
      4.76862      2.14840    0.0217760      4.61530    0.0935690
      4.42800      2.15220    0.0216260      4.63150    0.0930860
      4.13280      2.15600    0.0215890      4.64800    0.0930950
      3.87450      2.15920    0.0216230      4.66160    0.0933760
      3.64659      2.16180    0.0217270      4.67280    0.0939370
      3.40148      2.16440    0.0219450      4.68420    0.0949960
      3.26274      2.16580    0.0221370      4.69030    0.0958900
      3.09960      2.16740    0.0224190      4.69710    0.0971810
      2.75520      2.17250    0.0233510      4.71910     0.101460
      2.47968      2.17570    0.0245390      4.73290     0.106780
      2.42393      2.17710    0.0248780      4.73910     0.108320
      2.25426      2.17930    0.0260020      4.74860     0.113330
      2.19986      2.18070    0.0264570      4.75460     0.115390
      2.12192      2.18220    0.0271440      4.76120     0.118460
      2.06640      2.18250    0.0277010      4.76270     0.120920
      1.90745      2.18650    0.0295920      4.77990     0.129410
      1.77120      2.19030    0.0317090      4.79620     0.138900
      1.65004      2.19390    0.0341050      4.81200     0.149650
      1.54980      2.19740    0.0365810      4.82710     0.160760
      1.45863      2.20080    0.0393410      4.84200     0.173160
      1.37760      2.20520    0.0423150      4.86090     0.186620
      1.30509      2.20940    0.0455720      4.87960     0.201380
      1.24996      2.21270    0.0484740      4.89350     0.214510
      1.12713      2.22210    0.0566870      4.93450     0.251930
     0.999871      2.23550    0.0694220      4.99270     0.310390
     0.899739      2.24980    0.0839340      5.05460     0.377670
     0.799897      2.26910     0.106160      5.13740     0.481750
     0.700079      2.29430     0.140850      5.24390     0.646310
     0.656347      2.30840     0.163550      5.30190     0.755080
     0.550062      2.34860     0.254050      5.45130      1.19330
     0.486021      2.37270     0.355550      5.50320      1.68720
     0.439972      2.35370     0.477960      5.31160      2.25000
     0.433966      2.34670     0.495760      5.26140      2.32680
     0.399948      2.27080     0.589260      4.80920      2.67620
     0.381489      2.22480     0.621660      4.56330      2.76610
     0.364981      2.18480     0.646760      4.35510      2.82610
     0.344018      2.14780     0.690750      4.13610      2.96730
     0.326274      2.08590     0.748450      3.79060      3.12230
     0.309960      1.99966     0.797660      3.36240      3.19010
     0.291727      1.86777     0.818060      2.81940      3.05590
     0.285021      1.81368     0.814960      2.62530      2.95610
     0.273998      1.71758     0.790960      2.32450      2.71710
     0.258300      1.60468     0.691750      2.09650      2.22010
     0.250018      1.56529     0.635950      2.04570      1.99090
     0.240000      1.53289     0.556840      2.03970      1.70720
     0.238431      1.52919     0.543740      2.04280      1.66300
     0.233932      1.52179     0.504340      2.06150      1.53500
     0.229983      1.52189     0.468530      2.09660      1.42610
     0.225425      1.53000     0.428130      2.15760      1.31010
     0.221400      1.54210     0.401730      2.21670      1.23900
     0.219014      1.54830     0.387820      2.24680      1.20090
     0.217516      1.55170     0.379620      2.26370      1.17810
     0.213766      1.55711     0.356120      2.29780      1.10900
     0.210000      1.56871     0.328920      2.35270      1.03200
     0.200006      1.62092     0.273310      2.55270     0.886040
     0.189985      1.68493     0.243610      2.77960     0.820930
     0.180000      1.73754     0.243710      2.95960     0.846910
     0.170004      1.77035     0.235210      3.07880     0.832800
     0.165312      1.79045     0.223410      3.15580     0.800000
     0.160000      1.82655     0.203610      3.29480     0.743790
     0.154980      1.87846     0.189000      3.49290     0.710070
     0.149001      1.95686     0.195700      3.79100     0.765930
     0.145864      1.99997     0.207500      3.95680     0.830000
     0.144167      2.02400     0.216300      4.04970     0.875580
     0.142510      2.04800     0.226200      4.14300     0.926520
     0.140891      2.07100     0.237100      4.23270     0.982070
     0.138995      2.09900     0.251500      4.34240      1.05580
     0.136246      2.14000     0.272200      4.50540      1.16500
     0.133316      2.19400     0.297600      4.72500      1.30590
     0.130509      2.25400     0.330500      4.97120      1.48990
     0.127819      2.32600     0.372100      5.27170      1.73100
     0.124996      2.41200     0.439900      5.62410      2.12210
     0.121553      2.52900     0.572000      6.06860      2.89320
     0.118001      2.63000     0.779400      6.30930      4.09960
     0.114800      2.70300      1.02600      6.25340      5.54660
     0.110997      2.78800      1.62900      5.11920      9.08330
     0.107812      2.07900      1.97900     0.405720      8.22870
     0.105000      1.67089      1.85900    -0.664000      6.21240
     0.102466      1.49669      1.70200    -0.656800      5.09480
    0.0999952      1.39569      1.64000    -0.741700      4.57790
    0.0976252      1.22389      1.60700     -1.08460      3.93360
    0.0953723      1.07471      1.47500     -1.02070      3.17040
    0.0932211      1.02336      1.35400    -0.786100      2.77130
    0.0911647     0.977110      1.27000    -0.658200      2.48190
    0.0885600     0.931109      1.13800    -0.428100      2.11920
    0.0826560     0.982758     0.951410    0.0606300      1.87000
    0.0774900     0.996768     0.963110    0.0659600      1.92000
    0.0729318     0.847790     0.990810    -0.263000      1.68000
    0.0688800     0.673890     0.808810    -0.200000      1.09010
    0.0652547     0.675690     0.614210    0.0793000     0.830030
    0.0619920     0.763290     0.511010     0.321480     0.780090
    0.0590400     0.828590     0.511110     0.425330     0.846990
    0.0563564     0.817690     0.532510     0.385060     0.870850
    0.0539061     0.774090     0.503710     0.345500     0.779830
    0.0516600     0.756790     0.463010     0.358360     0.700800
    0.0495936     0.746090     0.423400     0.377380     0.631800
    0.0476862     0.740590     0.385700     0.399710     0.571300
    0.0459200     0.739090     0.350500     0.423400     0.518110
    0.0442800     0.740690     0.318100     0.447440     0.471230
    0.0427531     0.744390     0.288600     0.470830     0.429670
    0.0413280     0.749990     0.261900     0.493900     0.392850
    0.0399948     0.756590     0.237800     0.515880     0.359840
    0.0387450     0.764090     0.216300     0.537050     0.330550
    0.0375709     0.771990     0.197000     0.557170     0.304170
    0.0364659     0.780090     0.179800     0.576220     0.280520
    0.0354240     0.788290     0.164400     0.594380     0.259190
    0.0344400     0.796500     0.150700     0.611690     0.240070
    0.0335092     0.804300     0.138400     0.627740     0.222630
    0.0326274     0.812200     0.127300     0.643460     0.206790
    0.0317908     0.819600     0.117400     0.657950     0.192440
    0.0309960     0.826800     0.108400     0.671840     0.179250
    0.0295200     0.840200    0.0930700     0.697270     0.156390
    0.0281782     0.852400    0.0804200     0.720110     0.137100
    0.0269530     0.863500    0.0700100     0.740730     0.120910
    0.0258300     0.873500    0.0612500     0.759250     0.107000
    0.0247968     0.882500    0.0539400     0.775890    0.0952040
    0.0236160     0.892600    0.0463100     0.794590    0.0826730
    0.0229600     0.898100    0.0424100     0.804780    0.0761770
    0.0221400     0.904838    0.0378600     0.817300    0.0685140
    0.0215624     0.909458    0.0348600     0.825900    0.0634080
    0.0206640     0.916528    0.0305200     0.839090    0.0559450
    0.0190745     0.928369    0.0237700     0.861300    0.0441350
    0.0177120     0.938009    0.0188500     0.879510    0.0353630
    0.0165312     0.945849    0.0151800     0.894400    0.0287160
    0.0154980     0.952359    0.0123900     0.906834    0.0235990
    0.0145863     0.957789    0.0102300     0.917256    0.0195960
    0.0137760     0.962369   0.00854100     0.926082    0.0164390
    0.0130510     0.966269   0.00719300     0.933625    0.0139010
    0.0123984     0.969619   0.00610600     0.940125    0.0118410
    0.0112713     0.975000   0.00450200     0.950604   0.00877890
    0.0103320     0.979150   0.00340100     0.958722   0.00666020
   0.00953723     0.982370   0.00262300     0.965043   0.00515350
   0.00885600     0.984950   0.00206000     0.970122   0.00405800
   0.00826560     0.987050   0.00164300     0.974265   0.00324340
   0.00774900     0.988770   0.00132700     0.977664   0.00262420
   0.00729318     0.990213   0.00108600     0.980520   0.00215070
   0.00708480     0.990844  0.000985500     0.981771   0.00195300
   0.00688800     0.991429  0.000897200     0.982930   0.00177900
   0.00652547     0.992477  0.000748600     0.985010   0.00148590
   0.00619920     0.993388  0.000630200     0.986819   0.00125210
   0.00563564     0.994917  0.000456200     0.989859  0.000907760
   0.00516600     0.996220  0.000338900     0.992454  0.000675240
   0.00476862     0.997548  0.000257300     0.995102  0.000513340
   0.00459200     0.998438  0.000225800     0.996878  0.000450890
   0.00450851     0.999107  0.000211700     0.998214  0.000423020
   0.00442800      1.00032  0.000198700      1.00065  0.000397530
   0.00439660      1.00142  0.000193700      1.00283  0.000387950
   0.00438106      1.00249  0.000246100      1.00500  0.000493430
   0.00437333      1.00347  0.000299600      1.00695  0.000601280
   0.00436563      1.00563  0.000570800      1.01130   0.00114800
   0.00436410      1.00616   0.00100700      1.01236   0.00202640
   0.00436103      1.00709   0.00278000      1.01423   0.00559940
   0.00435796      1.00735   0.00454600      1.01474   0.00915890
   0.00435490      1.00702   0.00635000      1.01404    0.0127890
   0.00435184      1.00615   0.00807000      1.01228    0.0162390
   0.00435032      1.00554   0.00890600      1.01103    0.0179110
   0.00434879      1.00472   0.00960500      1.00938    0.0193010
   0.00434727      1.00372    0.0102500      1.00734    0.0205760
   0.00434574      1.00259    0.0108300      1.00508    0.0217160
   0.00434422      1.00142    0.0111100      1.00273    0.0222520
   0.00434270      1.00020    0.0108500      1.00028    0.0217040
   0.00434118     0.998898    0.0104500     0.997688    0.0208770
   0.00433966     0.997868   0.00982100     0.995644    0.0196000
   0.00433814     0.997312   0.00895400     0.994551    0.0178600
   0.00433510     0.996726   0.00648600     0.993420    0.0129300
   0.00432754     0.997483   0.00482900     0.994949   0.00963370
   0.00432000     0.998025   0.00399900     0.996038   0.00798220
   0.00430500     0.998536   0.00360200     0.997061   0.00719350
   0.00429010     0.998675   0.00326300     0.997341   0.00651740
   0.00427531     0.999096   0.00276300     0.998185   0.00552100
   0.00426062      1.00043   0.00258600      1.00086   0.00517420
   0.00425916      1.00068   0.00274500      1.00135   0.00549370
   0.00425331      1.00113   0.00418400      1.00224   0.00837740
   0.00425185      1.00093   0.00471900      1.00184   0.00944680
   0.00425039      1.00065   0.00509200      1.00127    0.0101910
   0.00424603     0.999813   0.00487700     0.999603   0.00975220
   0.00424457     0.999673   0.00466200     0.999324   0.00932100
   0.00423154     0.999156   0.00496900     0.998289   0.00992960
   0.00421714     0.998543   0.00484800     0.997064   0.00968190
   0.00420285     0.998124   0.00467200     0.996230   0.00932650
   0.00418865     0.997686   0.00444600     0.995358   0.00887140
   0.00417454     0.997563   0.00385000     0.995117   0.00768120
   0.00416054     0.997700   0.00367800     0.995392   0.00733910
   0.00414662     0.997717   0.00350700     0.995427   0.00699800
   0.00413280     0.997881   0.00328500     0.995756   0.00655610
   0.00411907     0.998106   0.00332400     0.996204   0.00663540
   0.00410543     0.998281   0.00341400     0.996553   0.00681630
   0.00409188     0.998310   0.00371200     0.996609   0.00741150
   0.00407842     0.998156   0.00385300     0.996300   0.00769180
   0.00406505     0.998053   0.00389100     0.996095   0.00776680
   0.00405176     0.998031   0.00397900     0.996050   0.00794230
   0.00403857     0.997899   0.00422100     0.995785   0.00842430
   0.00402546     0.997550   0.00436000     0.995087   0.00869860
   0.00401243     0.997206   0.00424500     0.994402   0.00846630
   0.00399948     0.996999   0.00407900     0.993990   0.00813350
   0.00393600     0.996581   0.00326100     0.993163   0.00649970
   0.00387450     0.996817   0.00271800     0.993637   0.00541870
   0.00375709     0.996975   0.00247800     0.993953   0.00494100
   0.00364659     0.997026   0.00225100     0.994056   0.00448860
   0.00344400     0.997143   0.00186700     0.994291   0.00372330
   0.00326274     0.997295   0.00156100     0.994595   0.00311360
   0.00309960     0.997460   0.00131400     0.994925   0.00262130
   0.00275520     0.997856  0.000877900     0.995716   0.00175200
   0.00247968     0.998205  0.000607600     0.996413   0.00121300
   0.00225426     0.998486  0.000433200     0.996974  0.000865090
   0.00206640     0.998713  0.000316800     0.997428  0.000632780
   0.00190745     0.998896  0.000236800     0.997793  0.000473080
   0.00177120     0.999046  0.000180500     0.998092  0.000360660
   0.00165312     0.999167  0.000139900     0.998335  0.000279570
   0.00154980     0.999268  0.000110000     0.998536  0.000219840
   0.00145863     0.999352  8.77100e-05     0.998704  0.000175310
   0.00137760     0.999423  7.07400e-05     0.998846  0.000141400
   0.00130510     0.999483  5.76800e-05     0.998966  0.000115300
   0.00123984     0.999534  4.74800e-05     0.999068  9.49160e-05
   0.00112713     0.999616  3.30100e-05     0.999232  6.59950e-05
   0.00103320     0.999679  2.36400e-05     0.999357  4.72650e-05
  0.000953723     0.999727  1.73500e-05     0.999455  3.46910e-05
  0.000885600     0.999766  1.30200e-05     0.999531  2.60340e-05
  0.000826560     0.999796  9.95700e-06     0.999593  1.99100e-05
  0.000774900     0.999822  7.73600e-06     0.999643  1.54690e-05
  0.000729318     0.999842  6.10100e-06     0.999685  1.22000e-05
  0.000688800     0.999860  4.87200e-06     0.999719  9.74260e-06
  0.000652547     0.999874  3.93700e-06     0.999748  7.87300e-06
  0.000619920     0.999887  3.21400e-06     0.999774  6.42730e-06
  0.000495936     0.999928  1.32200e-06     0.999856  2.64380e-06
  0.000413280     0.999950  6.37000e-07     0.999901  1.27390e-06
  0.000309960     0.999972  1.98800e-07     0.999944  3.97590e-07
  0.000247968     0.999982  7.99500e-08     0.999965  1.59900e-07
  0.000206640     0.999988  3.78000e-08     0.999975  7.55990e-08
  0.000154980     0.999993  1.15000e-08     0.999986  2.30000e-08
  0.000123984     0.999996  4.53700e-09     0.999991  9.07400e-09
  0.000103320     0.999997  2.65700e-09     0.999994  5.31400e-09
  8.85600e-05     0.999998  1.30500e-09     0.999996  2.61000e-09
  7.74900e-05     0.999998  6.61500e-10     0.999997  1.32300e-09
  6.88800e-05     0.999999  4.04900e-10     0.999997  8.09800e-10
  6.19920e-05      1.00000  1.41610e-17      1.00000  2.83230e-17
