     0.999871      3.54401   0.00361302
     0.899739      3.54401   0.00433683
     0.700079      3.54401   0.00578006
     0.619920      3.54401   0.00635949
     0.499936      3.54402   0.00722773
     0.399948      3.54402   0.00939859
     0.299985      3.54403    0.0122955
     0.247968      3.54404    0.0146176
     0.200006      3.54405    0.0181031
     0.149993      3.54409    0.0243093
     0.123984      3.54412    0.0293478
     0.120023      3.54412    0.0304000
    0.0999871      3.54416    0.0364822
    0.0899739      3.54419    0.0406712
    0.0797325      3.54422    0.0460859
    0.0750054      3.54423    0.0490721
    0.0700079      3.54425    0.0526968
    0.0677879      3.54425    0.0544865
    0.0657740      3.54426    0.0562198
    0.0637778      3.54426    0.0580746
    0.0619920      3.54426    0.0598015
    0.0598090      3.54426    0.0621208
    0.0548117      3.54425    0.0681236
    0.0499935      3.54420    0.0751260
    0.0448567      3.54408    0.0845502
    0.0398662      3.54380    0.0962936
    0.0348858      3.54314     0.112044
    0.0299986      3.54157     0.133723
    0.0274970      3.53997     0.148588
    0.0259979      3.53852     0.159252
    0.0250018      3.53727     0.167204
    0.0247968      3.53696     0.168988
    0.0240000      3.53565     0.176147
    0.0225016      3.53239     0.191407
    0.0200006      3.52322     0.223562
    0.0174995      3.50450     0.267570
    0.0149993      3.38500     0.333000
    0.0135000      3.37600     0.370600
    0.0123984      3.36600     0.404000
    0.0118080      3.36000     0.424500
    0.0112713      3.35300     0.445000
    0.0103320      3.33900     0.485800
   0.00999871      3.33300     0.502100
   0.00953723      3.32300     0.526400
   0.00918400      3.31400     0.546600
   0.00885600      3.30500     0.566600
   0.00855062      3.29500     0.586500
   0.00826560      3.28500     0.606300
   0.00799897      3.27400     0.625800
   0.00774900      3.26300     0.645100
   0.00751418      3.25100     0.664200
   0.00729318      3.23900     0.683000
   0.00708480      3.22700     0.701500
   0.00700079      3.22100     0.709200
   0.00688800      3.21400     0.719700
   0.00670184      3.20000     0.737500
   0.00652547      3.18600     0.754900
   0.00635815      3.17200     0.771900
   0.00619920      3.15700     0.788500
   0.00590400      3.12700     0.820400
   0.00563564      3.09500     0.850200
   0.00539061      3.06200     0.878100
   0.00516600      3.02900     0.903900
   0.00499935      3.00200     0.923000
   0.00450851      2.90900     0.978800
   0.00413280      2.82300      1.01900
   0.00375709      2.72100      1.05000
   0.00335092      2.61100      1.08500
   0.00299985      2.48200      1.11600
   0.00275520      2.37100      1.12600
   0.00249968      2.23900      1.13600
   0.00247968      2.22600      1.13500
   0.00243106      2.19700      1.12900
   0.00238431      2.17100      1.12800
   0.00233932      2.14100      1.12400
   0.00229600      2.11500      1.11900
   0.00225425      2.08800      1.12000
   0.00221400      2.05400      1.11600
   0.00217516      2.02400      1.10600
   0.00213766      1.99710      1.09900
   0.00210142      1.96660      1.09200
   0.00206640      1.93620      1.08200
   0.00203253      1.90760      1.07200
   0.00200007      1.87350      1.06500
   0.00193725      1.79900      1.02200
   0.00187855      1.74140     0.966400
   0.00182329      1.69750     0.895200
   0.00177120      1.67350     0.825900
   0.00172200      1.66360     0.753800
   0.00167546      1.66900     0.690300
   0.00163137      1.68380     0.629900
   0.00158954      1.71090     0.579600
   0.00154980      1.74360     0.536900
   0.00151200      1.78490     0.503700
   0.00149993      1.79940     0.494900
   0.00147600      1.83110     0.479000
   0.00144167      1.88920     0.465100
   0.00140891      1.95470     0.474500
   0.00137760      2.01400     0.511800
   0.00134765      2.05200     0.569100
   0.00131898      2.06700     0.628300
   0.00129150      2.07200     0.687600
   0.00126514      2.06000     0.750400
   0.00123984      2.03400     0.803900
   0.00122756      2.02000     0.827900
   0.00121553      2.00500     0.852700
   0.00119215      1.96220     0.901600
   0.00116966      1.90850     0.935300
   0.00114800      1.86020     0.958800
   0.00112713      1.80980     0.984600
   0.00110700      1.75130      1.00400
   0.00108758      1.69350      1.01600
   0.00106883      1.62890      1.03000
   0.00105071      1.54990      1.03000
   0.00103320      1.47410      1.00500
   0.00101626      1.41670     0.969200
  0.000999871      1.37010     0.939100
  0.000984000      1.32220     0.913600
  0.000968625      1.26730     0.885200
  0.000966360      1.25860     0.880200
  0.000953723      1.20820     0.845300
  0.000939273      1.15310     0.790100
  0.000925254      1.10960     0.722500
  0.000911647      1.08215     0.648200
  0.000898435      1.07189     0.574600
  0.000885600      1.07546     0.508300
  0.000873127      1.08700     0.452700
  0.000861000      1.09990     0.407700
  0.000849205      1.10910     0.368700
  0.000837730      1.11450     0.328900
  0.000826560      1.12170     0.284700
  0.000799897      1.17290     0.176000
  0.000774900      1.24940     0.108200
  0.000751418      1.32070    0.0736400
  0.000729318      1.37870    0.0612300
  0.000708480      1.42070    0.0575500
  0.000691104      1.44920    0.0566600
  0.000670184      1.47700    0.0561100
  0.000652547      1.49680    0.0554000
  0.000635815      1.51330    0.0544700
  0.000619920      1.52760    0.0533000
  0.000590400      1.55100    0.0506100
  0.000563564      1.57030    0.0484000
  0.000551040      1.57850    0.0475100
  0.000516600      1.59880    0.0455000
  0.000499935      1.60750    0.0447700
  0.000476862      1.61870    0.0439200
  0.000442800      1.63270    0.0429600
  0.000413280      1.64290    0.0422800
  0.000387450      1.65070    0.0414400
  0.000364659      1.65670    0.0406700
  0.000340148      1.66240    0.0397700
  0.000326274      1.66530    0.0391500
  0.000309960      1.66840    0.0382700
  0.000275520      1.67440    0.0367700
  0.000247968      1.67800    0.0356000
  0.000242393      1.67890    0.0353800
  0.000225426      1.68070    0.0347000
  0.000219986      1.68110    0.0344800
  0.000212192      1.68200    0.0341600
  0.000206640      1.68250    0.0339500
  0.000190745      1.68350    0.0333300
  0.000177120      1.68450    0.0328200
  0.000165004      1.68510    0.0324600
  0.000154980      1.68560    0.0321800
  0.000145863      1.68560    0.0318900
  0.000137760      1.68600    0.0316400
  0.000130510      1.68590    0.0314000
  0.000124996      1.68590    0.0312300
  0.000123984      1.68610    0.0312000
  0.000112713      1.68630    0.0310100
  9.99871e-05      1.68630    0.0307700
  8.99739e-05      1.68620    0.0306000
  7.99897e-05      1.68630    0.0304000
  7.00079e-05      1.68730    0.0301600
  6.56347e-05      1.68780    0.0300600
  5.50062e-05      1.69040    0.0298600
  4.86021e-05      1.69400    0.0297300
  4.39972e-05      1.69770    0.0296400
  4.33966e-05      1.69830    0.0296200
  3.99948e-05      1.70280    0.0295400
  3.81489e-05      1.70580    0.0294600
  3.64981e-05      1.70910    0.0293800
  3.44018e-05      1.71440    0.0292800
  3.26274e-05      1.72000    0.0291600
  3.09960e-05      1.72610    0.0290600
  2.91727e-05      1.73510    0.0288800
  2.85021e-05      1.73920    0.0288100
  2.73998e-05      1.74660    0.0286900
  2.58300e-05      1.75980    0.0284400
  2.50018e-05      1.76860    0.0282700
  2.40000e-05      1.78160    0.0274400
  2.38431e-05      1.78380    0.0273600
  2.33932e-05      1.79140    0.0272400
  2.29983e-05      1.79860    0.0273200
  2.25426e-05      1.80800    0.0276500
  2.21400e-05      1.81770    0.0285000
  2.19014e-05      1.82380    0.0293100
  2.17516e-05      1.82760    0.0299300
  2.13766e-05      1.83830    0.0319300
  2.10000e-05      1.84950    0.0346300
  2.00007e-05      1.88460    0.0462200
  1.89985e-05      1.92610    0.0667700
  1.80000e-05      1.97750    0.0996200
  1.70004e-05      2.03900     0.157100
  1.65312e-05      2.06900     0.197600
  1.60000e-05      2.10100     0.260100
  1.54980e-05      2.12000     0.336800
  1.49001e-05      2.10900     0.448900
  1.45863e-05      2.08200     0.504400
  1.44167e-05      2.06000     0.529700
  1.42510e-05      2.03700     0.548300
  1.40891e-05      2.01700     0.560900
  1.38996e-05      1.99790     0.573400
  1.36246e-05      1.97390     0.591200
  1.33316e-05      1.95100     0.610500
  1.30509e-05      1.93070     0.629300
  1.27819e-05      1.91150     0.648200
  1.24997e-05      1.89210     0.668800
  1.21553e-05      1.86750     0.695600
  1.18001e-05      1.84130     0.725600
  1.14800e-05      1.81550     0.755200
  1.10997e-05      1.78140     0.794600
  1.07812e-05      1.74760     0.832600
  1.05000e-05      1.71140     0.873500
  1.02466e-05      1.65150     0.912200
  9.99952e-06      1.59070     0.926300
  9.76252e-06      1.53610     0.933200
  9.53723e-06      1.48280     0.936100
  9.32211e-06      1.42930     0.932600
  9.11647e-06      1.37390     0.917500
  8.85600e-06      1.32960     0.869400
  8.26560e-06      1.30880     0.890500
  7.74900e-06      1.15600     0.901800
  7.29318e-06      1.03249     0.847500
  6.88800e-06     0.938890     0.772200
  6.52547e-06     0.873700     0.686800
  6.19920e-06     0.835400     0.598500
  5.90400e-06     0.825300     0.515000
  5.63564e-06     0.837900     0.453500
  5.39061e-06     0.851900     0.416700
  5.16600e-06     0.857300     0.390700
  4.95936e-06     0.857500     0.367300
  4.76862e-06     0.855700     0.344700
  4.59200e-06     0.853500     0.322200
  4.42800e-06     0.851700     0.299400
  4.27531e-06     0.851500     0.276000
  4.13280e-06     0.857100     0.252000
  3.87450e-06     0.869600     0.223900
  3.64659e-06     0.876700     0.200200
  3.44400e-06     0.883000     0.179400
  3.26274e-06     0.889300     0.161100
  3.09960e-06     0.895700     0.145000
  2.95200e-06     0.902220     0.130800
  2.81782e-06     0.909170     0.118300
  2.77369e-06     0.912160     0.114200
  2.75520e-06     0.913520     0.113300
  2.69530e-06     0.916340     0.109000
  2.63796e-06     0.919220     0.104300
  2.58300e-06     0.922660    0.0995500
  2.53029e-06     0.926710    0.0953900
  2.47968e-06     0.930840    0.0920700
  2.43106e-06     0.935910    0.0884700
  2.38431e-06     0.943000    0.0869600
  2.36160e-06     0.947010    0.0879100
  2.34374e-06     0.950130    0.0892000
  2.32615e-06     0.954770    0.0915400
  2.30883e-06     0.958070    0.0995700
  2.29176e-06     0.954030     0.109900
  2.27494e-06     0.943890     0.113700
  2.25836e-06     0.934950     0.111100
  2.24202e-06     0.929630     0.106000
  2.22593e-06     0.926360     0.100700
  2.21005e-06     0.925390    0.0941200
  2.19441e-06     0.926870    0.0893900
  2.17898e-06     0.928800    0.0859200
  2.16377e-06     0.930960    0.0836800
  2.14877e-06     0.932680    0.0824500
  2.13398e-06     0.933700    0.0812900
  2.11939e-06     0.934660    0.0799800
  2.10499e-06     0.935640    0.0788800
  2.06985e-06     0.938360    0.0763600
  2.03586e-06     0.940690    0.0755800
  2.00297e-06     0.941310    0.0759100
  1.98692e-06     0.940350    0.0758800
  1.97113e-06     0.939220    0.0743700
  1.94028e-06     0.938890    0.0708300
  1.91038e-06     0.939350    0.0676500
  1.90745e-06     0.939370    0.0672800
  1.87855e-06     0.940580    0.0640000
  1.85051e-06     0.942210    0.0612900
  1.82329e-06     0.944380    0.0588700
  1.79687e-06     0.946550    0.0580000
  1.77120e-06     0.947160    0.0576500
  1.74625e-06     0.947420    0.0557300
  1.72200e-06     0.948540    0.0541400
  1.69841e-06     0.949430    0.0531900
  1.68686e-06     0.949460    0.0527700
  1.67546e-06     0.949310    0.0518400
  1.65312e-06     0.950200    0.0495300
  1.63137e-06     0.951430    0.0481900
  1.61018e-06     0.952330    0.0469100
  1.58954e-06     0.953200    0.0456600
  1.56942e-06     0.954040    0.0444500
  1.54980e-06     0.954860    0.0432600
  1.53067e-06     0.955680    0.0420900
  1.51200e-06     0.956520    0.0409500
  1.49378e-06     0.957360    0.0398600
  1.47952e-06     0.958070    0.0390100
  1.47600e-06     0.958250    0.0388300
  1.45863e-06     0.959050    0.0378600
  1.44167e-06     0.959860    0.0368400
  1.42510e-06     0.960740    0.0358500
  1.40891e-06     0.961670    0.0349000
  1.39308e-06     0.962630    0.0340500
  1.37760e-06     0.963660    0.0331900
  1.36246e-06     0.964850    0.0324700
  1.34765e-06     0.966300    0.0320800
  1.33316e-06     0.967210    0.0327500
  1.32462e-06     0.966860    0.0330100
  1.31898e-06     0.966500    0.0325500
  1.30509e-06     0.966830    0.0309800
  1.29420e-06     0.967970    0.0298500
  1.29150e-06     0.968360    0.0298900
  1.27819e-06     0.969260    0.0297400
  1.26514e-06     0.970020    0.0291500
  1.25236e-06     0.971120    0.0284800
  1.23984e-06     0.972580    0.0280500
  1.22756e-06     0.973910    0.0280800
  1.21553e-06     0.975590    0.0277000
  1.20373e-06     0.978440    0.0281300
  1.19215e-06     0.982960    0.0308100
  1.18080e-06     0.983310    0.0412000
  1.17409e-06     0.976540    0.0463100
  1.16966e-06     0.970850    0.0448900
  1.15873e-06     0.965670    0.0376900
  1.14800e-06     0.966560    0.0321300
  1.13747e-06     0.968570    0.0307700
  1.12713e-06     0.969400    0.0297700
  1.11697e-06     0.970470    0.0290700
  1.10700e-06     0.971350    0.0294200
  1.10110e-06     0.971400    0.0299300
  1.09720e-06     0.970980    0.0303100
  1.08758e-06     0.969500    0.0298600
  1.07812e-06     0.968780    0.0282000
  1.06883e-06     0.968810    0.0267800
  1.05969e-06     0.969380    0.0251900
  1.05071e-06     0.970300    0.0243500
  1.04188e-06     0.971380    0.0236400
  1.03320e-06     0.972210    0.0238500
  1.01626e-06     0.972500    0.0240700
  9.99871e-07     0.972190    0.0237300
  9.95056e-07     0.971930    0.0237900
  9.91872e-07     0.971580    0.0235400
  9.84000e-07     0.971130    0.0225800
  9.76252e-07     0.971130    0.0214300
  9.68625e-07     0.971480    0.0204900
  9.61116e-07     0.971920    0.0197600
  9.53723e-07     0.972340    0.0191300
  9.18400e-07     0.974360    0.0168500
  8.85600e-07     0.976060    0.0154300
  8.55062e-07     0.977400    0.0141400
  8.50370e-07     0.977630    0.0139500
  8.49206e-07     0.977690    0.0139100
  8.43429e-07     0.977940    0.0137100
  8.37730e-07     0.978170    0.0134800
  8.32107e-07     0.978430    0.0132600
  8.26560e-07     0.978700    0.0130300
  8.21086e-07     0.978980    0.0128400
  8.15684e-07     0.979280    0.0126400
  8.10353e-07     0.979660    0.0125000
  8.05091e-07     0.980060    0.0125100
  8.03005e-07     0.980260    0.0125700
  8.00930e-07     0.980410    0.0128300
  7.98866e-07     0.980280    0.0131500
  7.96812e-07     0.979950    0.0132200
  7.94769e-07     0.979680    0.0130600
  7.92737e-07     0.979560    0.0128200
  7.90714e-07     0.979500    0.0125800
  7.88702e-07     0.979540    0.0123000
  7.86700e-07     0.979650    0.0120900
  7.84709e-07     0.979780    0.0119300
  7.79774e-07     0.980050    0.0116800
  7.74900e-07     0.980280    0.0114700
  7.70087e-07     0.980510    0.0112800
  7.65333e-07     0.980720    0.0111600
  7.60638e-07     0.980870    0.0110600
  7.58312e-07     0.980890    0.0110100
  7.56000e-07     0.980910    0.0108900
  7.51418e-07     0.981040    0.0106500
  7.46892e-07     0.981190    0.0104300
  7.42419e-07     0.981370    0.0101900
  7.38000e-07     0.981580    0.0100100
  7.33633e-07     0.981800   0.00983900
  7.29318e-07     0.982010   0.00973000
  7.25053e-07     0.982150   0.00964700
  7.20837e-07     0.982270   0.00949800
  7.16671e-07     0.982410   0.00935500
  7.12552e-07     0.982560   0.00924100
  7.10103e-07     0.982610   0.00917500
  7.08480e-07     0.982640   0.00911300
  7.04455e-07     0.982750   0.00893400
  6.96539e-07     0.983030   0.00857600
  6.88800e-07     0.983350   0.00827300
  6.70184e-07     0.984100   0.00762100
  6.52547e-07     0.984790   0.00706200
  6.35815e-07     0.985440   0.00656100
  6.19920e-07     0.986040   0.00609500
  5.90400e-07     0.987150   0.00527800
  5.63564e-07     0.988160   0.00459100
  5.39061e-07     0.989050   0.00401100
  5.16600e-07     0.989850   0.00352000
  4.95936e-07     0.990600   0.00310100
  4.76862e-07     0.991265   0.00274300
  4.59200e-07     0.991870   0.00243600
  4.42800e-07     0.992413   0.00217000
  4.27531e-07     0.992917   0.00194000
  4.13280e-07     0.993369   0.00174000
  3.87450e-07     0.994169   0.00141200
  3.64659e-07     0.994842   0.00115900
  3.44400e-07     0.995417  0.000960900
  3.26274e-07     0.995911  0.000803300
  3.09960e-07     0.996340  0.000677500
  2.95200e-07     0.996716  0.000575900
  2.81782e-07     0.997051  0.000492700
  2.69530e-07     0.997354  0.000424300
  2.58300e-07     0.997637  0.000367500
  2.47968e-07     0.997921  0.000320100
  2.38431e-07     0.998274  0.000280100
  2.36160e-07     0.998415  0.000271100
  2.34907e-07     0.998557  0.000266200
  2.34818e-07     0.998570  0.000283700
  2.34596e-07     0.998590  0.000318200
  2.34374e-07     0.998595  0.000326200
  2.33932e-07     0.998625  0.000333200
  2.33492e-07     0.998676  0.000331400
  2.33053e-07     0.998753  0.000338400
  2.32615e-07     0.998839  0.000371700
  2.32180e-07     0.998958  0.000387400
  2.32006e-07     0.999033  0.000412900
  2.31833e-07     0.999122  0.000447100
  2.31659e-07     0.999219  0.000516400
  2.31486e-07     0.999315  0.000620400
  2.31313e-07     0.999443  0.000741400
  2.31141e-07     0.999576  0.000914900
  2.30969e-07     0.999592   0.00133300
  2.30797e-07     0.999349   0.00182000
  2.30625e-07     0.998919   0.00199300
  2.30453e-07     0.998507   0.00188900
  2.30026e-07     0.998083   0.00137800
  2.29600e-07     0.998130  0.000994400
  2.29176e-07     0.998263  0.000927100
  2.28753e-07     0.998316  0.000893500
  2.28331e-07     0.998380  0.000881900
  2.27912e-07     0.998427  0.000948000
  2.27494e-07     0.998387   0.00105700
  2.27285e-07     0.998312   0.00109900
  2.27077e-07     0.998235   0.00106300
  2.26662e-07     0.998171  0.000974300
  2.26248e-07     0.998150  0.000903200
  2.25836e-07     0.998173  0.000815000
  2.25426e-07     0.998226  0.000786900
  2.25016e-07     0.998291  0.000767300
  2.24609e-07     0.998352  0.000824400
  2.24202e-07     0.998326  0.000915000
  2.23798e-07     0.998273  0.000912600
  2.23395e-07     0.998260  0.000914600
  2.22993e-07     0.998237  0.000949700
  2.22752e-07     0.998191  0.000973300
  2.22593e-07     0.998155  0.000963800
  2.22194e-07     0.998088  0.000910700
  2.21796e-07     0.998064  0.000841100
  2.21400e-07     0.998071  0.000788500
  2.20612e-07     0.998093  0.000725400
  2.19441e-07     0.998135  0.000660700
  2.17516e-07     0.998203  0.000614100
  2.15624e-07     0.998249  0.000597000
  2.13765e-07     0.998279  0.000580500
  2.10142e-07     0.998332  0.000549400
  2.06640e-07     0.998381  0.000520300
  1.99974e-07     0.998477  0.000467500
  1.93725e-07     0.998573  0.000421100
  1.87855e-07     0.998672  0.000380300
  1.82329e-07     0.998786  0.000344200
  1.80998e-07     0.998821  0.000335800
  1.79687e-07     0.998863  0.000327700
  1.78394e-07     0.998917  0.000320800
  1.78138e-07     0.998931  0.000319500
  1.77882e-07     0.998946  0.000318100
  1.77627e-07     0.998962  0.000316700
  1.77373e-07     0.998982  0.000315400
  1.77120e-07     0.999004  0.000314000
  1.76867e-07     0.999032  0.000312700
  1.76615e-07     0.999066  0.000311500
  1.76364e-07     0.999112  0.000310400
  1.76114e-07     0.999181  0.000309500
  1.75989e-07     0.999234  0.000310000
  1.75864e-07     0.999314  0.000316300
  1.75739e-07     0.999436  0.000347500
  1.75615e-07     0.999585  0.000453500
  1.75490e-07     0.999687  0.000699700
  1.75366e-07     0.999623   0.00107500
  1.75267e-07     0.999406   0.00135200
  1.75218e-07     0.999254   0.00143700
  1.75168e-07     0.999092   0.00146900
  1.75119e-07     0.998932   0.00144600
  1.75069e-07     0.998782   0.00137300
  1.75020e-07     0.998659   0.00126500
  1.74970e-07     0.998571   0.00114500
  1.74921e-07     0.998519   0.00102500
  1.74872e-07     0.998502  0.000909400
  1.74748e-07     0.998545  0.000714000
  1.74625e-07     0.998617  0.000663900
  1.74503e-07     0.998641  0.000658400
  1.74380e-07     0.998629  0.000615800
  1.74257e-07     0.998628  0.000540200
  1.74135e-07     0.998656  0.000473200
  1.74013e-07     0.998703  0.000436400
  1.73891e-07     0.998747  0.000422500
  1.73647e-07     0.998805  0.000417400
  1.73404e-07     0.998843  0.000416300
  1.73162e-07     0.998875  0.000415200
  1.72920e-07     0.998910  0.000414200
  1.72680e-07     0.998967  0.000417300
  1.72439e-07     0.999050  0.000474000
  1.72200e-07     0.999033  0.000664100
  1.72152e-07     0.999001  0.000698700
  1.72104e-07     0.998962  0.000721700
  1.72057e-07     0.998919  0.000730800
  1.72009e-07     0.998876  0.000724300
  1.71961e-07     0.998839  0.000704300
  1.71913e-07     0.998809  0.000674300
  1.71842e-07     0.998780  0.000625800
  1.71723e-07     0.998773  0.000565200
  1.71604e-07     0.998790  0.000534100
  1.71485e-07     0.998801  0.000530100
  1.71367e-07     0.998800  0.000525600
  1.71249e-07     0.998796  0.000509100
  1.71130e-07     0.998798  0.000487600
  1.71012e-07     0.998807  0.000472000
  1.70777e-07     0.998829  0.000461600
  1.70542e-07     0.998843  0.000459800
  1.70308e-07     0.998851  0.000458400
  1.70074e-07     0.998857  0.000457100
  1.69841e-07     0.998861  0.000455700
  1.68686e-07     0.998877  0.000448600
  1.67546e-07     0.998888  0.000441500
  1.66422e-07     0.998897  0.000434600
  1.65312e-07     0.998907  0.000427700
  1.64217e-07     0.998916  0.000421100
  1.63137e-07     0.998924  0.000414500
  1.62071e-07     0.998933  0.000408200
  1.61018e-07     0.998942  0.000401900
  1.59979e-07     0.998951  0.000395900
  1.58954e-07     0.998960  0.000390000
  1.57941e-07     0.998968  0.000384100
  1.56942e-07     0.998976  0.000378500
  1.55955e-07     0.998984  0.000373000
  1.54980e-07     0.998991  0.000367600
  1.54017e-07     0.998998  0.000360200
  1.53067e-07     0.999007  0.000353000
  1.52128e-07     0.999015  0.000345900
  1.51200e-07     0.999024  0.000339000
  1.50284e-07     0.999034  0.000332300
  1.49378e-07     0.999043  0.000325800
  1.48484e-07     0.999054  0.000319400
  1.47952e-07     0.999061  0.000315500
  1.47776e-07     0.999063  0.000314500
  1.47600e-07     0.999066  0.000313500
  1.47425e-07     0.999068  0.000312600
  1.47249e-07     0.999071  0.000311600
  1.47075e-07     0.999073  0.000310400
  1.46901e-07     0.999076  0.000309200
  1.46727e-07     0.999080  0.000308100
  1.46553e-07     0.999084  0.000307700
  1.46380e-07     0.999088  0.000308500
  1.46208e-07     0.999092  0.000311200
  1.46035e-07     0.999094  0.000313900
  1.45863e-07     0.999095  0.000316600
  1.45692e-07     0.999095  0.000317900
  1.45521e-07     0.999095  0.000319200
  1.45350e-07     0.999095  0.000320400
  1.45180e-07     0.999095  0.000321500
  1.45011e-07     0.999094  0.000322500
  1.44841e-07     0.999092  0.000322600
  1.44672e-07     0.999090  0.000320900
  1.44504e-07     0.999089  0.000318400
  1.44335e-07     0.999089  0.000315500
  1.44167e-07     0.999089  0.000312800
  1.44000e-07     0.999090  0.000310300
  1.43833e-07     0.999092  0.000308000
  1.43666e-07     0.999094  0.000306300
  1.43500e-07     0.999096  0.000304900
  1.43334e-07     0.999097  0.000303500
  1.43169e-07     0.999099  0.000302100
  1.43004e-07     0.999100  0.000300900
  1.42839e-07     0.999102  0.000299700
  1.42674e-07     0.999103  0.000298500
  1.42510e-07     0.999104  0.000297300
  1.42183e-07     0.999107  0.000294700
  1.41858e-07     0.999110  0.000292200
  1.41534e-07     0.999113  0.000289600
  1.41212e-07     0.999116  0.000286800
  1.40891e-07     0.999120  0.000284400
  1.40571e-07     0.999123  0.000282400
  1.40253e-07     0.999127  0.000280600
  1.39937e-07     0.999130  0.000279000
  1.39622e-07     0.999134  0.000277500
  1.39308e-07     0.999137  0.000276100
  1.38530e-07     0.999143  0.000272500
  1.37760e-07     0.999150  0.000268400
  1.37302e-07     0.999154  0.000265700
  1.36999e-07     0.999156  0.000263700
  1.36246e-07     0.999163  0.000258600
  1.35502e-07     0.999170  0.000253400
  1.34765e-07     0.999177  0.000248400
  1.34037e-07     0.999184  0.000243700
  1.33316e-07     0.999192  0.000239600
  1.32603e-07     0.999199  0.000235500
  1.31898e-07     0.999206  0.000231600
  1.31200e-07     0.999213  0.000227800
  1.30510e-07     0.999220  0.000224100
  1.29826e-07     0.999226  0.000220500
  1.29150e-07     0.999233  0.000216600
  1.28481e-07     0.999240  0.000212900
  1.27819e-07     0.999246  0.000209200
  1.27163e-07     0.999253  0.000205600
  1.26514e-07     0.999259  0.000202000
  1.25872e-07     0.999266  0.000198600
  1.25236e-07     0.999272  0.000195200
  1.24607e-07     0.999278  0.000191900
  1.23984e-07     0.999285  0.000188700
  1.18080e-07     0.999344  0.000159800
  1.12713e-07     0.999399  0.000136100
  1.07812e-07     0.999448  0.000116600
  1.03320e-07     0.999493  0.000100500
  9.91872e-08     0.999536  8.70400e-05
  9.53723e-08     0.999590  7.57800e-05
  9.53136e-08     0.999592  7.55800e-05
  9.52990e-08     0.999593  7.63800e-05
  9.52258e-08     0.999595  7.81800e-05
  9.51527e-08     0.999597  7.83800e-05
  9.50798e-08     0.999599  7.81800e-05
  9.50069e-08     0.999603  7.83800e-05
  9.49342e-08     0.999607  7.97800e-05
  9.48615e-08     0.999614  8.03300e-05
  9.47890e-08     0.999624  8.43800e-05
  9.47166e-08     0.999638  9.63800e-05
  9.46876e-08     0.999636  0.000104300
  9.46587e-08     0.999630  0.000123400
  9.46298e-08     0.999621  0.000145800
  9.46009e-08     0.999614  0.000153700
  9.45721e-08     0.999602  0.000148800
  9.45432e-08     0.999589  0.000139900
  9.45144e-08     0.999579  0.000131000
  9.44856e-08     0.999575  0.000119700
  9.44568e-08     0.999575  0.000112400
  9.44280e-08     0.999576  0.000107500
  9.43562e-08     0.999582  0.000104300
  9.42844e-08     0.999586  0.000102700
  9.42128e-08     0.999589  0.000102000
  9.41412e-08     0.999591  0.000105000
  9.40698e-08     0.999589  0.000110000
  9.39985e-08     0.999584  0.000110100
  9.39273e-08     0.999581  0.000105900
  9.38562e-08     0.999580  0.000102600
  9.37852e-08     0.999581  9.83900e-05
  9.37143e-08     0.999584  9.69900e-05
  9.36435e-08     0.999588  9.59900e-05
  9.35728e-08     0.999590  9.85400e-05
  9.35023e-08     0.999590  0.000102700
  9.34318e-08     0.999588  0.000102500
  9.33615e-08     0.999587  0.000102400
  9.32912e-08     0.999586  0.000104000
  9.32491e-08     0.999584  0.000105100
  9.32210e-08     0.999583  0.000104600
  9.31510e-08     0.999580  0.000102000
  9.30811e-08     0.999579  9.86400e-05
  9.30113e-08     0.999580  9.60900e-05
  9.28719e-08     0.999582  9.29400e-05
  9.25254e-08     0.999586  8.87900e-05
  9.18400e-08     0.999593  8.46800e-05
  9.11647e-08     0.999599  8.24800e-05
  8.98435e-08     0.999610  7.83800e-05
  8.85600e-08     0.999620  7.44800e-05
  8.55062e-08     0.999643  6.57700e-05
  8.26560e-08     0.999665  5.83200e-05
  7.74900e-08     0.999704  4.63100e-05
  7.29318e-08     0.999739  3.72300e-05
  6.88800e-08     0.999770  3.02800e-05
  6.75662e-08     0.999787  2.82300e-05
  6.75368e-08     0.999788  2.81900e-05
  6.75294e-08     0.999788  2.85300e-05
  6.74926e-08     0.999789  2.93700e-05
  6.74559e-08     0.999790  2.94900e-05
  6.74193e-08     0.999791  2.94400e-05
  6.73826e-08     0.999792  2.95600e-05
  6.73460e-08     0.999795  3.02200e-05
  6.73095e-08     0.999798  3.05200e-05
  6.72729e-08     0.999803  3.23300e-05
  6.72364e-08     0.999805  3.76900e-05
  6.72219e-08     0.999803  4.12200e-05
  6.72073e-08     0.999801  4.97300e-05
  6.71927e-08     0.999798  5.96600e-05
  6.71781e-08     0.999795  6.31600e-05
  6.71636e-08     0.999793  6.10090e-05
  6.71491e-08     0.999790  5.71110e-05
  6.71345e-08     0.999786  5.31600e-05
  6.71200e-08     0.999782  4.81600e-05
  6.71054e-08     0.999780  4.49300e-05
  6.70909e-08     0.999780  4.27800e-05
  6.70764e-08     0.999780  4.16900e-05
  6.70619e-08     0.999781  4.14800e-05
  6.70474e-08     0.999783  4.12800e-05
  6.70329e-08     0.999784  4.09000e-05
  6.70184e-08     0.999785  4.07000e-05
  6.69822e-08     0.999786  4.04600e-05
  6.69460e-08     0.999786  4.18200e-05
  6.69099e-08     0.999785  4.40600e-05
  6.68738e-08     0.999784  4.41700e-05
  6.68377e-08     0.999783  4.23400e-05
  6.68017e-08     0.999782  4.08700e-05
  6.67658e-08     0.999783  3.90400e-05
  6.67298e-08     0.999784  3.84500e-05
  6.66939e-08     0.999785  3.80400e-05
  6.66581e-08     0.999786  3.92200e-05
  6.66222e-08     0.999786  4.11000e-05
  6.65865e-08     0.999786  4.10400e-05
  6.65507e-08     0.999785  4.10700e-05
  6.65150e-08     0.999784  4.18000e-05
  6.64936e-08     0.999783  4.22900e-05
  6.64794e-08     0.999783  4.20900e-05
  6.64437e-08     0.999782  4.09700e-05
  6.64081e-08     0.999781  3.95100e-05
  6.63726e-08     0.999781  3.84000e-05
  6.63371e-08     0.999782  3.76400e-05
  6.63016e-08     0.999782  3.70500e-05
  6.62662e-08     0.999783  3.64700e-05
  6.62308e-08     0.999783  3.64100e-05
  6.61954e-08     0.999784  3.63600e-05
  6.61601e-08     0.999784  3.63000e-05
  6.61248e-08     0.999784  3.62500e-05
  6.59489e-08     0.999785  3.49500e-05
  6.52547e-08     0.999790  3.36700e-05
  6.19920e-08     0.999808  2.80700e-05
  5.63564e-08     0.999839  1.99500e-05
  5.16600e-08     0.999864  1.45600e-05
  4.76862e-08     0.999884  1.08800e-05
  4.42800e-08     0.999900  8.28100e-06
  4.13280e-08     0.999913  6.42100e-06
  3.54240e-08     0.999936  3.61500e-06
  3.09960e-08     0.999951  2.18800e-06
  2.75520e-08     0.999962  1.40100e-06
  2.47968e-08     0.999969  9.38000e-07
  2.25425e-08     0.999974  6.51500e-07
  2.06640e-08     0.999979  4.66600e-07
  1.90745e-08     0.999982  3.42900e-07
  1.77120e-08     0.999985  2.57600e-07
  1.74625e-08     0.999986  2.43900e-07
  1.74502e-08     0.999986  2.43200e-07
  1.74478e-08     0.999986  2.49900e-07
  1.74453e-08     0.999986  2.56500e-07
  1.74429e-08     0.999986  2.70000e-07
  1.74404e-08     0.999986  2.76600e-07
  1.74380e-08     0.999986  2.76500e-07
  1.74355e-08     0.999986  2.76300e-07
  1.74331e-08     0.999986  2.83000e-07
  1.74306e-08     0.999986  3.10000e-07
  1.74282e-08     0.999986  3.77600e-07
  1.74257e-08     0.999986  5.13000e-07
  1.74233e-08     0.999986  6.48500e-07
  1.74208e-08     0.999986  7.84000e-07
  1.74184e-08     0.999986  8.71500e-07
  1.74159e-08     0.999986  9.59500e-07
  1.74135e-08     0.999986  1.04100e-06
  1.74110e-08     0.999986  1.12200e-06
  1.74086e-08     0.999986  1.19600e-06
  1.74061e-08     0.999986  1.24300e-06
  1.74037e-08     0.999986  1.22300e-06
  1.74013e-08     0.999986  1.17500e-06
  1.73988e-08     0.999986  1.11400e-06
  1.73964e-08     0.999986  1.06000e-06
  1.73939e-08     0.999986  1.01200e-06
  1.73915e-08     0.999986  9.71000e-07
  1.73891e-08     0.999986  9.50510e-07
  1.73769e-08     0.999986  9.11500e-07
  1.73647e-08     0.999986  8.80500e-07
  1.73526e-08     0.999986  8.33500e-07
  1.73404e-08     0.999986  8.31000e-07
  1.73283e-08     0.999986  8.70500e-07
  1.73162e-08     0.999986  9.23000e-07
  1.73041e-08     0.999986  9.55500e-07
  1.72921e-08     0.999986  9.68000e-07
  1.72800e-08     0.999986  9.53500e-07
  1.72680e-08     0.999986  9.25500e-07
  1.72560e-08     0.999986  9.04500e-07
  1.72440e-08     0.999986  8.83000e-07
  1.72320e-08     0.999986  8.82000e-07
  1.72200e-08     0.999986  8.84000e-07
  1.71961e-08     0.999986  8.88500e-07
  1.71723e-08     0.999986  9.03500e-07
  1.69841e-08     0.999986  7.88000e-07
  1.67546e-08     0.999986  7.50000e-07
  1.65312e-08     0.999986  7.14000e-07
  1.63137e-08     0.999987  6.80500e-07
  1.61018e-08     0.999987  6.49000e-07
  1.58954e-08     0.999987  6.19000e-07
  1.56942e-08     0.999988  5.91000e-07
  1.54980e-08     0.999988  5.64000e-07
  1.51200e-08     0.999989  5.15500e-07
  1.47600e-08     0.999989  4.71700e-07
  1.44167e-08     0.999990  4.32600e-07
  1.40891e-08     0.999990  3.97500e-07
  1.37760e-08     0.999990  3.65800e-07
  1.30510e-08     0.999991  2.99500e-07
  1.23984e-08     0.999992  2.47500e-07
  1.12713e-08     0.999994  1.73400e-07
  1.03320e-08     0.999995  1.25100e-07
  9.53723e-09     0.999995  9.25000e-08
  8.85600e-09     0.999996  6.98500e-08
  8.26560e-09     0.999997  5.37500e-08
  7.74900e-09     0.999997  4.20200e-08
  7.29318e-09     0.999997  3.33200e-08
  6.88800e-09     0.999998  2.67600e-08
  6.52547e-09     0.999998  2.17300e-08
  6.19920e-09      1.00000      0.00000
