      1997.17       29.541152       4.6159000
      1831.11       29.432696       5.0193862
      1678.64       29.315348       5.4080899
      1538.84       29.112907       5.8839314
      1410.68       28.901897       6.3250575
      1293.12       28.646262       6.8183575
      1185.32       28.366893       7.3349557
      1086.63       28.058981       7.8803334
      996.658       27.707575       8.4590677
      912.992       27.282675       9.0915341
      837.166       26.789598       9.7491516
      767.704       26.216240       10.427092
      703.656       25.537318       11.123763
      645.079       24.759607       11.814112
      591.246       23.886654       12.481037
      542.126       22.901512       13.104668
      496.931       21.819549       13.683018
      455.657       20.630349       14.184678
      417.596       19.329887       14.581230
      382.904       17.966394       14.835062
      294.990       13.787057       14.698610
      321.786       15.131382       14.925121
      294.990       13.718803       14.737694
      270.413       12.345044       14.400416
      247.869       11.057357       13.932868
      227.244       9.8483286       13.363940
      208.307       8.7515299       12.690533
      190.980       7.7647940       11.965085
      175.070       6.8850497       11.174246
      160.497       6.1438345       10.374118
      147.127       5.4860440       9.5445218
      134.883       4.9515335       8.7310037
      123.613       4.5020048       7.9252235
      113.331       4.1515808       7.1423396
      103.926       3.8254665       6.4501967
      95.2260       3.6754107       5.6953007
      87.3129       3.5189992       5.0140124
      80.0415       3.4425792       4.3464515
      73.4069       3.4594367       3.7316305
      67.2731       3.5528369       3.1909443
      61.6837       3.6780477       2.7384612
      56.5364       3.8231124       2.3601800
      51.8329       3.9743830       2.0632395
      47.5218       4.1254040       1.8258907
      43.5644       4.2439825       1.6650727
      39.9305       4.3434195       1.4889621
      36.6059       4.4402095       1.3740600
      33.5637       4.5161293       1.3016624
      30.7653       4.5294984       1.2458964
      28.2039       4.5451813       1.1552224
      25.8570       4.5717066       1.0868758
      23.7018       4.5911552       1.0252718
      21.7288       4.5932128      0.98582116
      19.9204       4.5760347      0.92734357
      18.2598       4.5935707      0.88004471
      16.7388       4.5907720      0.84718816
      15.3465       4.5918192      0.82499254
      14.0683       4.5747876      0.81284233
      12.8962       4.5448295      0.77944558
      11.8193       4.5331643      0.75054290
      10.8378       4.5229945      0.73419964
      9.93464       4.5054094      0.73658905
      9.10979       4.4557347      0.74012807
      8.34911       4.3999852      0.71315181
      7.65335       4.3537783      0.67449316
      7.01665       4.3252800      0.62878810
      6.43406       4.3025639      0.60095650
      5.89840       4.2937453      0.56255051
      5.40708       4.2939565      0.53748724
      4.95541       4.2852617      0.53745775
      4.54321       4.2605424      0.53044563
      4.16474       4.2347585      0.51912621
      3.81843       4.2160306      0.51170779
      3.50040       4.1883119      0.50730196
      3.20870       4.1690071      0.49229065
      2.94150       4.1504861      0.48581195
      2.69648       4.1287394      0.47753188
      2.47227       4.1074694      0.47071660
      2.26621       4.0884090      0.46289343
      2.07748       4.0639774      0.45964199
      1.90452       4.0383420      0.45611691
      1.74601       4.0166953      0.44917506
      1.60062       3.9955939      0.44361814
      1.46727       3.9770393      0.43910505
      1.34517       3.9544667      0.43580765
      1.23367       3.9364117      0.43321575
      1.13021       3.9151211      0.43125210
      1.03666       3.8966931      0.43162310
     0.950071       3.8737325      0.43607405
     0.870676       3.8468934      0.43508801
     0.798353       3.8251196      0.43179607
     0.731902       3.8046273      0.43485372
     0.670911       3.7802941      0.43869341
     0.615001       3.7536221      0.44228835
     0.563821       3.7263983      0.44598421
     0.517032       3.6967691      0.44984862
     0.473946       3.6636633      0.45342874
     0.434423       3.6264234      0.45508429
     0.398279       3.5863676      0.45315055
     0.365089       3.5442138      0.44647441
     0.334640       3.5008066      0.43404319
     0.306816       3.4580929      0.41544281
     0.281271       3.4137664      0.39374355
     0.257871       3.3669365      0.35306495
     0.236386       3.3418868      0.29467615
     0.216680       3.3406250      0.24177131
     0.198661       3.3525658      0.20205460
     0.182116       3.3759613      0.17224829
     0.166937       3.4069518      0.16657200
     0.153048       3.4226159      0.18024929
     0.140301       3.4218791      0.20615791
     0.128614       3.4008944      0.22245113
     0.117856       3.3717804      0.23046143
     0.108094       3.3381657      0.22619601
    0.0991081       3.3074208      0.21023340
    0.0908310       3.2830118      0.18562557
    0.0832668       3.2693031      0.15707951
    0.0763450       3.2640577      0.13147936
    0.0699686       3.2625069      0.10968065
    0.0641409       3.2636224     0.090683766
    0.0588161       3.2669145     0.074575665
    0.0539062       3.2706618     0.061064422
    0.0494355       3.2747277     0.049178091
    0.0453159       3.2788307     0.038374851
    0.0415358       3.2852047     0.027142435
    0.0401244       3.2906273     0.022390376
